ncols        426
nrows        32
xllcorner    510054
yllcorner    180258
cellsize     2
NODATA_value  -9999
35.857 37.113 34.607 36.080 33.018 34.005 38.875 40.520 40.650 36.382 33.765 33.952 33.452 33.070 33.002 32.967 35.585 33.230 36.380 34.285 34.730 33.055 32.835 32.825 32.770 32.862 32.940 32.972 32.935 32.840 32.882 33.620 33.460 32.835 33.335 36.647 38.318 35.040 33.268 32.857 32.878 33.033 33.557 34.035 35.385 35.597 34.190 34.115 35.158 35.870 36.618 35.228 32.805 32.982 34.847 34.955 38.417 39.583 40.303 39.275 37.528 32.515 32.565 32.603 32.597 32.623 32.610 33.130 32.882 32.728 32.698 32.790 32.840 32.868 32.845 32.800 32.783 32.920 32.757 32.768 34.888 39.865 41.285 42.198 40.768 39.360 36.225 33.982 33.780 32.970 32.925 32.615 33.467 33.375 32.590 32.682 34.272 33.250 36.307 38.560 39.368 40.443 39.765 38.915 37.560 32.840 32.680 33.198 32.555 32.300 32.900 32.575 36.855 33.195 32.478 32.460 32.405 32.420 32.397 32.405 32.450 32.770 32.882 32.673 32.787 31.950 32.145 32.160 34.020 34.173 37.998 36.028 33.333 34.853 37.448 36.647 35.105 34.710 32.745 31.930 31.935 32.272 33.268 32.365 32.005 31.980 32.632 32.167 31.870 31.903 32.650 32.467 32.035 34.910 38.582 36.908 36.195 36.290 35.830 34.092 33.425 32.250 31.600 31.632 31.767 31.590 31.628 32.717 37.428 38.323 39.105 39.103 38.042 36.385 31.740 31.798 32.412 31.725 31.358 31.368 31.382 31.403 31.528 31.628 31.702 32.498 33.125 33.423 32.202 32.405 32.407 31.823 31.587 31.597 31.647 31.753 31.763 31.720 32.342 31.888 31.730 36.357 38.150 39.080 38.335 35.520 31.708 31.695 32.243 31.730 31.735 31.782 32.717 32.033 32.100 31.540 31.620 31.567 31.580 33.160 33.955 35.542 37.580 38.713 38.478 37.425 34.295 31.500 31.770 33.150 33.485 31.320 31.325 31.612 32.010 31.347 31.227 31.183 31.198 31.198 31.225 31.188 31.177 32.185 31.160 31.863 31.993 33.037 32.040 31.682 31.715 32.123 31.295 32.395 31.965 32.925 33.432 34.405 34.505 33.857 34.052 34.042 32.327 31.657 31.755 31.318 31.345 32.033 31.962 31.420 31.423 31.493 32.745 32.815 31.735 33.553 33.515 32.700 31.120 31.122 31.138 32.142 31.658 31.275 32.837 32.302 31.320 31.025 31.005 31.007 30.997 31.038 31.013 31.058 30.990 30.987 30.970 30.960 32.077 31.407 31.390 31.120 31.150 33.175 31.700 32.022 33.347 31.118 31.132 31.110 31.090 31.057 31.055 31.042 31.028 31.000 30.962 30.910 30.945 30.910 30.913 30.897 30.892 30.855 30.827 30.810 30.755 30.778 30.737 30.712 30.700 30.660 30.612 30.605 30.583 30.548 30.540 30.523 30.467 31.295 34.698 34.750 33.577 31.925 30.612 31.692 30.442 30.710 30.955 30.962 30.903 30.735 30.597 30.478 30.380 30.330 30.323 30.317 30.312 30.275 30.260 30.243 30.225 30.205 30.255 30.288 30.340 30.405 30.480 30.538 30.670 30.525 30.368 30.385 30.410 30.460 30.375 30.465 31.450 35.220 34.592 32.190 31.050 32.873 30.382 29.577 29.188 29.077 29.267 29.960 29.920 30.470 31.378 32.237 34.775 34.943 33.302 34.507 33.580 32.573 31.778 31.817 31.880 31.940 32.147 32.088 31.938 31.878 31.810 31.780 32.030 32.705 31.222 30.945 31.622 32.077 31.295 29.150 27.775 27.535 27.135 26.712 25.488 25.068 25.273 26.115
33.513 35.278 33.812 34.682 32.943 32.945 38.077 40.178 41.540 39.257 33.855 33.022 33.030 33.025 33.020 32.958 32.895 32.910 34.180 35.155 37.625 34.732 32.792 32.818 32.807 33.465 35.022 32.990 32.865 32.805 32.772 32.733 37.458 35.878 33.522 32.835 33.068 32.980 32.830 32.855 32.873 32.897 33.510 33.562 34.368 34.525 33.005 32.860 33.030 33.928 35.035 34.900 32.972 32.785 33.175 36.092 39.077 40.435 39.882 38.692 33.497 32.553 32.590 33.025 32.745 32.585 32.980 33.240 32.835 32.750 32.717 32.820 32.820 32.825 32.792 32.737 32.785 32.792 32.725 32.802 37.878 40.655 41.917 41.675 40.765 40.007 38.993 34.870 33.305 36.495 34.945 33.537 32.903 32.608 32.658 33.708 34.438 32.298 32.357 33.535 35.990 38.545 39.360 39.050 35.092 34.445 37.305 35.882 33.290 32.755 33.513 32.802 33.030 32.625 33.395 32.682 32.440 32.430 32.660 32.667 32.415 32.355 36.603 38.097 33.185 32.570 32.080 32.090 32.713 32.745 34.188 33.275 33.458 37.643 38.995 38.735 37.722 36.070 32.963 31.897 31.907 33.190 33.185 32.963 34.042 33.030 32.605 31.840 31.853 31.890 33.298 31.845 32.045 36.818 39.580 36.205 34.022 33.420 34.385 33.120 32.882 32.338 31.580 32.115 32.542 31.573 31.583 34.585 37.930 38.955 39.827 39.030 37.653 35.013 32.373 32.938 33.787 32.588 31.360 31.350 31.375 31.395 31.555 31.622 31.763 31.810 32.118 33.247 33.755 32.825 32.700 32.333 32.300 31.735 31.575 31.635 31.642 31.952 33.342 32.355 33.658 37.600 38.590 39.000 38.028 36.185 32.662 31.733 32.145 31.747 32.365 32.197 34.173 32.577 32.140 31.538 31.575 31.733 32.250 34.560 37.010 38.147 38.612 38.772 38.028 35.815 32.240 31.555 31.535 33.317 33.535 31.552 31.842 32.025 31.573 31.603 31.650 31.452 31.208 31.235 31.228 31.235 31.215 31.253 31.318 33.655 33.787 36.200 31.645 32.502 32.228 34.912 33.283 33.322 31.278 31.300 31.952 33.307 34.375 32.525 31.358 32.438 31.310 31.323 31.288 31.310 31.350 31.795 32.217 31.405 31.392 31.540 33.393 31.583 33.193 33.542 33.472 31.812 31.120 31.112 31.370 33.800 35.397 33.833 31.507 33.028 31.222 31.015 30.997 30.983 30.985 31.775 31.153 31.375 32.007 31.505 30.995 30.960 30.955 30.920 30.948 30.950 31.010 31.443 32.998 32.787 31.073 31.115 31.135 31.145 31.273 31.153 31.093 31.085 31.052 31.010 32.170 31.618 30.925 30.935 30.927 30.915 30.880 30.868 30.853 30.820 30.807 30.790 30.767 30.743 30.710 30.665 30.640 30.627 30.600 30.593 30.597 30.585 30.507 31.315 34.182 34.482 33.983 32.120 32.745 31.385 31.530 30.592 30.790 30.930 30.960 30.960 30.897 30.718 30.575 30.458 30.362 30.342 30.327 30.320 30.285 30.275 30.263 30.290 30.302 30.288 30.347 30.400 30.485 30.562 30.618 30.585 30.382 30.370 30.395 30.475 30.397 32.542 30.858 32.022 31.720 30.503 30.752 32.935 33.287 30.940 29.160 28.993 28.945 29.243 29.757 30.045 30.520 30.968 31.375 32.110 31.912 33.145 34.382 32.555 31.745 31.845 31.880 31.942 32.167 32.013 31.885 31.827 31.783 31.815 31.950 31.638 31.060 30.680 32.587 31.775 30.073 28.270 27.820 27.022 26.750 26.273 25.295 25.073 25.433 26.405
33.013 33.185 33.938 33.537 33.555 33.305 36.248 39.390 40.987 40.097 34.933 32.787 32.835 32.875 32.942 32.945 32.965 33.583 34.362 34.528 36.007 33.225 32.795 32.780 32.890 35.772 36.430 37.625 33.655 32.823 32.750 34.380 38.783 39.140 38.838 35.987 33.463 33.818 33.700 33.055 32.888 32.980 35.182 35.230 35.017 33.638 32.943 32.872 32.820 32.805 32.785 32.857 33.830 33.055 33.982 38.548 39.685 40.183 39.097 36.552 32.780 32.630 32.625 33.353 33.840 32.840 32.860 32.830 32.780 32.743 32.792 32.845 32.850 32.855 32.785 33.525 32.818 32.732 32.768 36.588 40.080 41.410 41.958 40.713 40.180 40.425 39.257 35.975 35.583 37.830 38.222 37.685 32.695 32.635 32.860 34.472 32.693 32.533 32.243 32.320 32.830 33.753 37.342 37.855 33.838 36.145 39.007 38.255 37.972 34.978 33.778 33.428 32.700 32.585 32.292 32.680 32.485 32.500 32.708 33.670 32.715 32.420 39.175 39.085 34.228 32.565 32.857 32.900 32.653 32.210 31.920 32.735 32.405 35.452 37.780 38.580 39.432 38.775 37.853 36.085 33.713 33.310 35.315 35.285 34.978 34.097 32.237 31.868 31.875 32.807 32.420 32.272 32.895 34.770 37.235 32.772 32.007 33.178 32.888 33.062 32.042 31.922 31.907 32.695 32.575 32.007 31.760 33.528 37.528 39.448 39.732 38.780 37.713 34.175 31.940 32.628 35.770 34.003 31.445 31.330 31.340 31.425 31.717 31.593 32.105 33.257 34.503 32.923 31.890 34.362 32.230 31.798 32.335 32.355 31.847 31.775 31.618 31.605 31.860 32.958 33.243 35.560 38.395 38.603 37.528 35.393 33.632 31.712 32.125 31.717 32.175 33.050 33.350 33.090 31.718 31.627 31.605 31.495 31.665 35.450 37.562 38.597 38.978 37.903 37.213 33.175 31.530 31.550 31.542 32.312 31.765 32.333 31.545 31.635 32.295 32.305 31.642 31.443 31.475 31.448 31.225 31.205 31.222 31.275 31.722 31.220 31.532 36.480 31.135 31.212 32.827 32.680 33.237 32.265 31.823 31.708 31.275 31.358 31.935 32.385 33.587 32.222 31.333 31.315 31.317 31.320 31.347 31.430 31.712 31.423 31.430 31.575 32.155 31.830 33.548 33.497 32.807 31.208 31.097 31.128 32.440 33.497 33.660 33.673 31.478 31.710 31.110 30.997 31.010 30.983 31.062 31.257 31.353 31.175 31.243 31.103 31.002 30.962 30.935 30.995 30.945 30.915 30.882 30.892 31.105 30.932 31.272 31.685 31.120 31.125 31.125 31.110 31.108 31.105 31.057 31.245 32.370 33.182 31.717 30.932 30.938 30.903 30.890 30.877 30.872 30.830 30.833 30.807 30.805 30.743 30.665 30.683 30.632 30.612 30.625 30.597 30.597 30.653 30.670 30.800 32.095 33.502 33.140 34.482 33.875 32.100 30.675 30.667 30.615 31.510 30.833 30.945 31.050 31.015 30.903 30.715 30.587 30.458 30.372 30.333 30.300 30.310 30.283 30.285 30.310 30.320 30.355 30.403 30.495 30.528 30.600 30.542 30.415 30.423 30.385 30.440 30.397 33.263 30.870 31.180 30.917 30.862 32.153 31.835 34.083 32.673 32.542 29.253 28.810 28.868 29.362 29.540 29.950 30.375 30.715 31.257 31.470 32.092 33.875 31.990 31.767 31.830 31.890 31.970 32.290 31.938 31.875 31.825 31.720 31.860 31.905 31.467 30.990 31.205 31.897 31.058 29.930 28.760 27.487 26.798 26.337 25.900 25.225 25.065 25.792 26.408
33.667 33.910 34.182 34.698 34.150 33.952 33.735 38.853 40.428 40.743 38.230 32.820 32.903 33.060 33.028 32.972 32.960 32.985 32.942 32.812 32.798 32.765 32.770 32.795 32.948 33.147 38.055 38.368 32.970 33.507 33.128 37.408 39.292 40.060 39.427 37.655 33.305 32.835 33.600 33.513 33.548 34.490 35.275 35.182 35.138 34.557 33.350 32.927 32.872 32.770 32.763 32.725 34.353 35.557 37.213 39.412 40.315 39.640 38.307 33.325 33.838 33.570 32.838 33.260 33.818 32.760 32.787 33.232 32.912 32.775 32.835 32.853 32.860 32.825 34.298 33.965 32.778 32.763 33.425 39.515 40.875 42.090 41.285 39.250 38.285 39.033 37.835 36.947 38.050 38.210 38.225 35.417 32.790 32.638 32.890 34.557 34.638 34.540 33.040 32.397 32.287 32.338 32.507 34.438 34.412 38.257 39.323 39.747 39.812 38.935 37.425 36.217 33.373 32.518 32.045 32.088 32.362 32.925 32.583 32.627 32.430 32.400 35.722 37.470 33.760 32.338 32.368 32.388 32.470 32.770 32.272 33.330 33.025 32.028 33.285 36.375 37.818 38.490 38.995 38.417 34.455 33.327 36.978 38.263 37.480 34.948 32.035 31.837 31.878 32.925 31.858 33.750 35.155 34.677 33.340 32.827 31.872 32.878 31.908 31.835 31.940 32.537 32.955 32.803 32.222 34.340 33.662 31.580 31.855 35.243 38.167 38.275 36.897 32.002 31.755 32.208 33.768 32.673 31.585 31.347 31.413 31.615 32.310 32.088 31.960 36.980 38.020 37.540 36.390 37.408 36.155 33.292 32.655 31.778 32.025 32.412 31.610 31.608 31.610 31.610 31.628 31.658 32.623 34.353 34.740 33.200 32.562 31.797 32.130 31.925 33.475 33.018 33.015 32.873 32.138 31.597 31.635 32.208 33.698 36.910 37.932 38.888 38.450 37.505 35.025 31.595 31.458 31.480 31.507 31.478 31.595 32.180 31.585 31.507 32.030 32.662 32.002 32.342 31.290 31.307 31.577 31.212 31.198 31.157 31.182 31.195 31.170 31.190 31.150 31.157 31.147 31.185 31.280 31.173 31.330 31.417 31.620 31.438 31.600 34.007 35.120 33.335 31.308 31.320 31.310 31.333 31.382 31.938 32.007 31.413 31.392 31.685 31.215 33.405 33.522 33.483 31.790 31.132 31.110 31.160 33.423 33.528 33.408 31.932 32.097 31.160 30.958 31.003 31.010 30.983 31.138 31.163 31.137 31.173 31.170 31.145 31.108 31.035 31.032 31.645 31.735 31.130 31.155 30.882 30.875 30.837 30.850 31.042 30.923 31.048 31.415 31.093 31.090 31.073 31.073 32.895 31.993 32.215 32.603 30.970 30.972 30.952 30.925 30.897 30.885 30.873 30.865 30.788 30.790 30.775 30.702 30.660 30.647 30.630 30.632 30.642 30.660 30.700 30.690 31.657 31.458 32.257 31.722 36.455 32.513 30.737 34.025 33.155 31.270 34.542 30.895 31.000 31.105 30.945 31.010 30.975 30.875 30.710 30.538 30.410 30.330 30.292 30.283 30.292 30.272 30.315 30.330 30.372 30.475 30.532 30.595 30.570 30.425 30.470 30.407 30.498 30.358 30.605 31.880 31.795 31.432 32.678 31.417 33.697 34.438 33.728 32.153 29.567 28.792 28.690 28.718 29.185 29.830 30.193 30.300 31.218 31.257 31.355 32.618 31.755 31.760 31.815 31.870 32.013 32.107 31.903 31.860 31.802 31.785 31.915 31.913 31.417 30.858 30.683 32.417 30.987 30.092 28.812 27.478 26.670 26.155 25.632 25.097 25.045 25.750 26.120
33.035 32.915 32.873 32.802 32.790 32.903 32.775 37.190 39.888 41.025 39.382 33.180 34.205 34.022 33.853 33.417 32.927 32.972 32.960 32.830 32.778 32.820 32.770 32.815 32.917 32.952 34.083 33.448 33.085 32.732 34.840 38.695 39.925 40.232 39.040 35.057 32.882 32.827 32.862 32.875 32.942 33.722 35.135 35.120 35.312 35.405 34.478 33.345 32.835 32.760 32.717 33.335 35.445 37.003 38.757 40.077 40.115 39.000 36.472 32.585 32.562 33.097 33.822 33.647 33.042 32.785 32.787 32.717 32.728 32.802 32.830 32.825 32.847 32.800 32.895 33.290 32.765 32.775 37.665 40.272 41.627 41.790 40.495 38.620 35.947 36.272 36.980 36.940 37.138 37.880 37.605 34.278 32.653 32.592 33.390 35.040 35.545 34.542 33.897 32.610 32.230 32.300 32.342 32.535 32.505 33.540 36.730 38.465 39.643 40.058 39.042 35.900 33.542 34.998 33.358 32.077 32.455 32.545 32.292 32.733 32.737 32.448 32.790 33.303 32.780 32.645 34.210 32.325 32.333 32.643 33.175 33.347 32.397 32.028 31.913 33.487 32.890 34.855 37.340 37.190 33.495 35.013 38.423 39.682 39.190 38.353 36.040 33.105 32.530 32.347 31.833 32.575 34.688 33.572 31.800 31.870 32.052 32.408 31.802 31.805 31.830 32.510 32.165 32.857 33.728 35.333 34.545 33.283 32.958 31.630 32.410 35.073 33.908 31.690 31.585 31.533 31.480 31.395 31.363 31.330 31.677 31.542 31.725 31.712 33.540 38.967 38.958 38.590 38.870 38.482 37.972 37.487 36.415 34.795 32.373 31.747 31.675 31.650 31.603 31.583 31.600 31.542 31.552 31.612 31.780 31.842 31.807 32.140 32.417 32.487 34.360 32.912 33.305 32.075 33.350 32.765 31.550 32.700 35.715 37.433 38.403 39.092 38.178 36.935 32.037 31.472 31.510 31.450 31.440 31.407 32.403 32.170 31.698 31.548 31.588 31.950 31.505 31.747 31.532 31.640 31.750 32.260 31.417 31.188 31.167 31.135 31.170 31.165 31.202 31.142 31.173 31.120 31.118 31.048 31.057 31.118 31.185 31.375 31.882 34.595 35.215 32.765 31.300 31.335 31.327 31.358 31.390 32.005 31.345 31.360 31.353 31.282 31.882 33.553 33.495 32.835 31.135 31.140 31.150 32.588 33.507 33.583 32.432 31.890 32.427 31.407 30.943 31.595 31.612 33.033 31.855 31.115 31.110 31.102 31.097 31.092 31.103 31.100 31.092 31.060 30.975 30.920 31.465 31.628 30.930 30.843 30.847 30.835 30.817 30.805 30.835 30.875 31.000 31.020 31.062 31.967 31.753 32.385 32.812 31.015 30.993 30.967 30.940 30.933 30.905 30.897 30.865 30.802 30.805 30.775 30.757 30.685 30.680 30.682 30.693 30.720 30.708 31.045 31.610 33.280 33.608 31.995 30.938 33.347 32.030 31.360 34.155 34.905 32.487 34.715 32.520 34.175 35.143 31.170 30.932 30.943 31.005 30.962 30.757 30.575 30.440 30.288 30.257 30.285 30.275 30.295 30.388 30.397 30.452 30.493 30.555 30.642 30.435 30.460 30.405 30.538 30.417 30.585 31.000 31.270 31.385 34.173 32.955 33.395 33.995 33.463 32.757 31.510 29.823 28.638 28.528 28.638 29.208 29.608 29.873 30.782 30.520 30.670 32.000 31.753 31.770 31.835 31.873 32.088 32.035 31.882 31.850 31.767 31.733 31.905 32.075 31.285 30.597 30.260 31.102 29.217 28.605 27.907 27.042 26.722 26.097 25.350 25.065 25.080 25.740 26.065
33.403 32.845 32.765 32.750 32.772 32.708 32.740 34.290 37.678 40.715 40.395 37.860 37.055 33.060 32.935 33.533 32.917 32.958 32.927 32.838 32.805 32.810 32.757 32.877 33.050 33.010 32.800 33.028 33.580 33.515 36.915 39.243 40.275 39.877 37.847 33.325 32.802 32.812 32.833 32.862 32.908 33.963 34.840 33.368 33.452 34.568 33.210 32.775 32.818 32.752 32.720 34.980 35.905 38.232 39.325 40.170 39.480 38.333 33.862 32.493 32.510 32.528 32.558 33.147 33.925 32.838 32.802 32.698 32.798 32.865 32.840 32.823 32.817 32.763 32.765 32.770 32.780 34.393 39.743 41.050 42.013 40.965 39.580 35.028 34.245 35.638 36.270 36.780 36.940 36.952 35.220 32.615 32.647 33.268 34.245 35.863 35.280 37.057 34.725 32.382 32.193 32.200 32.612 32.397 32.140 33.175 33.318 34.430 36.778 38.448 38.677 36.217 35.840 38.050 37.280 35.897 32.835 32.100 32.132 32.960 33.397 33.300 33.270 32.470 33.385 34.685 35.658 34.058 32.347 32.290 32.305 32.342 32.607 33.507 32.700 33.180 31.895 31.895 31.985 33.610 32.880 36.057 38.138 38.950 39.910 39.697 38.775 35.682 32.825 34.103 32.220 31.847 33.700 32.467 31.855 31.845 32.458 31.880 31.785 31.790 32.312 31.987 31.920 32.210 34.240 36.618 35.385 34.330 32.575 34.615 32.025 33.427 32.292 33.112 31.850 31.557 31.468 31.395 31.378 31.397 31.917 32.310 32.493 32.240 35.107 38.112 38.583 38.980 39.105 39.280 39.055 38.552 38.065 37.603 34.830 32.537 31.735 31.683 31.688 31.850 31.810 31.568 31.535 31.503 31.665 31.670 31.735 32.155 32.257 32.243 34.215 34.263 34.200 31.958 31.557 32.090 31.570 34.088 36.675 37.845 38.932 38.595 37.555 34.948 31.455 31.493 31.467 31.475 31.460 31.603 32.493 31.467 31.900 31.858 31.528 31.535 31.533 31.850 32.702 31.830 33.115 33.048 32.700 31.200 31.165 31.112 31.167 31.155 31.182 31.118 31.170 31.115 31.095 31.083 31.075 31.085 31.068 31.065 31.153 31.570 32.153 32.092 32.435 32.045 31.333 31.335 31.698 31.940 31.305 31.318 31.690 31.190 33.057 33.518 33.455 31.263 31.108 31.118 31.360 33.410 33.540 33.550 31.295 31.548 31.608 30.927 30.948 31.285 33.022 33.225 33.357 31.070 30.962 30.802 31.625 35.295 39.693 43.373 46.423 48.632 34.603 30.907 30.905 30.900 30.865 30.823 30.817 30.800 30.798 30.780 30.800 30.780 30.765 30.800 30.907 32.682 32.270 31.385 31.118 31.013 30.980 30.975 30.948 30.935 30.892 30.913 30.882 30.843 30.833 30.802 30.792 30.733 30.733 31.983 30.978 30.975 32.068 32.443 33.333 33.763 33.862 31.213 30.425 30.467 30.435 30.432 31.068 32.705 31.397 32.452 32.260 35.115 34.812 34.335 32.885 31.765 32.420 32.118 30.720 30.645 30.535 30.350 30.245 30.260 30.290 30.305 30.363 30.427 30.423 30.493 30.570 30.587 30.433 30.485 30.450 30.542 30.420 30.593 31.028 31.355 31.560 31.573 31.980 32.607 33.862 33.585 32.522 31.830 31.895 29.642 28.532 28.400 28.347 28.665 29.597 31.175 31.382 30.673 31.757 31.730 31.798 31.837 31.923 32.122 31.998 31.868 31.837 31.767 31.860 32.022 32.003 31.255 30.522 29.737 29.167 28.638 28.035 27.590 27.140 26.677 26.140 25.185 25.017 25.365 25.868 26.162
33.833 33.257 32.945 32.775 32.835 33.035 33.072 34.182 35.583 39.945 41.020 40.317 40.643 33.467 33.677 33.775 33.110 32.915 32.830 32.750 32.783 32.772 32.815 32.870 32.915 32.938 32.862 33.067 33.455 34.560 38.550 39.827 40.270 39.065 35.213 33.800 34.650 33.717 32.862 32.820 35.890 41.315 39.605 34.215 32.770 32.722 32.692 32.700 32.705 32.662 33.125 34.588 35.952 37.327 38.653 39.275 38.818 35.395 32.503 32.493 32.442 32.438 32.505 32.770 32.825 32.840 32.743 32.728 32.815 32.845 32.830 32.812 32.795 32.743 32.757 32.757 32.800 38.463 40.488 41.830 41.905 40.440 39.290 36.405 33.450 34.225 34.808 35.772 36.443 36.135 33.888 32.615 32.705 33.025 33.188 33.790 36.167 35.002 34.945 32.170 32.580 32.188 32.827 32.263 32.052 31.995 32.682 34.565 34.993 35.655 35.890 33.353 36.780 39.253 39.088 38.760 38.130 35.092 33.123 33.410 33.612 32.122 32.318 32.728 36.408 40.985 39.855 37.115 34.915 32.365 32.287 32.263 32.292 32.443 33.235 33.097 32.350 31.933 32.088 32.835 32.618 32.643 32.923 35.920 38.125 38.917 37.830 34.257 33.623 37.798 37.220 35.572 33.985 31.807 31.820 32.112 32.300 31.815 31.747 31.847 32.213 31.753 31.755 32.040 36.180 36.170 34.177 36.778 36.275 35.315 35.272 34.425 34.368 32.210 32.292 32.028 31.673 31.392 31.345 31.632 32.438 32.357 31.810 31.745 33.693 34.858 36.958 37.763 38.050 38.548 38.993 39.292 39.120 38.520 37.597 36.805 34.600 32.940 32.110 31.913 32.342 32.150 31.583 31.550 31.747 32.465 31.800 31.538 31.698 32.155 36.357 40.053 34.805 32.660 31.718 31.525 33.220 34.670 37.338 38.342 38.930 38.103 36.812 33.798 31.470 31.507 31.472 31.475 31.413 31.440 32.670 35.112 33.732 31.622 31.477 31.548 31.597 32.792 33.045 36.240 33.475 34.662 31.315 31.235 31.215 31.208 31.275 31.390 31.403 31.155 31.118 31.090 31.115 31.110 31.125 31.090 31.112 31.020 31.030 31.038 31.068 31.080 31.557 32.600 32.115 31.900 32.110 31.218 31.255 31.615 31.397 32.240 33.533 33.490 32.675 31.140 31.075 31.132 32.515 33.505 33.585 32.522 31.432 31.797 31.612 30.917 30.938 31.753 31.280 31.642 32.345 32.927 47.747 57.595 61.910 63.150 64.447 64.312 64.262 64.322 39.250 30.892 30.882 30.913 31.180 30.830 30.788 30.767 30.775 30.925 31.542 31.210 30.778 30.775 30.735 31.215 30.743 30.807 30.930 31.603 31.035 30.972 30.967 30.938 30.905 30.930 30.887 30.878 30.837 30.815 31.767 32.300 32.658 31.932 33.115 31.365 30.765 30.995 32.722 32.603 31.753 30.420 30.397 30.375 30.343 30.290 30.345 30.320 30.438 31.108 30.790 33.083 31.935 33.185 35.662 35.645 36.040 33.423 31.042 30.545 30.470 30.302 30.237 30.255 30.295 30.307 30.345 30.392 30.433 30.470 30.570 30.570 30.410 30.467 30.430 30.477 30.415 30.605 31.090 31.450 31.688 31.730 32.222 34.412 33.647 33.698 33.077 32.975 32.380 31.435 29.365 28.427 28.275 28.228 28.340 31.260 30.510 31.700 31.733 31.735 31.770 31.858 31.955 32.165 31.920 31.870 31.802 31.765 31.823 32.002 31.910 31.142 30.312 29.685 29.092 28.525 27.945 27.430 27.323 26.915 26.118 25.015 25.055 25.470 26.212 26.577
32.845 32.787 32.955 32.790 32.737 33.333 32.972 33.120 33.770 38.658 40.998 41.048 40.285 34.618 34.037 33.505 33.342 32.872 32.787 32.743 32.787 32.768 32.862 32.868 32.875 32.865 32.800 33.382 34.095 37.372 39.235 40.500 39.702 38.463 33.885 32.965 33.688 34.830 34.440 33.740 39.450 42.678 40.810 34.425 33.365 32.765 32.650 32.658 32.662 33.510 34.240 32.815 34.450 35.790 36.938 38.120 37.830 33.222 32.528 32.513 32.502 32.478 32.458 34.448 33.015 32.798 33.050 32.750 32.835 32.830 32.873 32.815 32.757 32.752 32.752 32.763 35.250 39.958 41.233 42.010 40.838 40.713 40.368 39.088 35.097 32.548 32.885 34.303 35.260 34.550 32.660 32.557 32.557 32.638 33.015 34.090 33.330 32.607 33.825 32.760 34.173 32.472 33.267 32.257 32.083 32.112 33.778 34.085 34.620 34.940 33.680 33.695 36.472 38.170 39.475 40.278 39.132 38.195 37.103 33.827 32.940 32.095 32.110 32.463 33.317 37.493 36.105 33.450 32.340 32.305 34.665 39.565 37.170 33.580 32.357 32.450 34.395 36.787 32.312 33.305 32.733 32.868 32.140 32.685 32.925 36.458 35.855 33.075 35.963 38.825 39.165 38.315 36.847 34.065 32.103 32.750 32.270 31.783 31.812 32.478 31.938 31.727 31.750 32.315 32.958 32.612 32.877 34.745 34.662 32.353 32.330 33.713 33.125 33.007 32.535 32.638 31.730 31.392 31.398 31.452 31.552 32.452 32.920 31.788 31.675 31.667 34.198 33.493 34.585 36.845 37.993 38.448 38.927 39.278 38.653 38.170 37.695 37.588 37.292 36.088 33.028 33.350 33.603 31.562 31.538 31.583 31.587 31.477 31.483 31.500 32.888 36.192 33.955 31.720 31.555 33.092 36.265 37.013 37.745 38.845 38.737 37.673 36.138 31.667 31.470 31.465 31.497 31.440 31.385 31.630 36.390 37.600 35.872 31.467 31.480 31.533 31.750 32.573 32.278 33.130 32.603 32.597 31.222 31.235 31.183 31.545 31.382 31.522 32.072 31.842 31.260 31.167 31.135 31.087 31.087 31.070 31.065 31.033 31.048 31.005 31.040 30.993 31.045 31.045 31.173 31.600 32.197 31.163 31.177 33.073 31.658 32.270 33.490 33.475 31.202 31.110 31.110 31.405 33.470 33.533 33.193 31.722 32.053 31.640 30.920 30.935 30.935 30.980 31.038 31.033 31.055 34.588 59.433 64.257 64.260 64.340 64.465 64.262 64.220 64.268 45.772 30.895 30.910 30.915 30.917 31.845 30.865 30.775 31.515 31.060 32.315 32.208 30.930 30.860 30.773 30.753 30.750 30.722 30.685 31.085 31.112 32.180 30.967 30.948 30.925 30.940 30.905 30.888 30.862 31.503 30.757 33.540 32.220 31.603 32.425 32.055 31.520 30.827 33.080 31.647 31.045 30.392 30.345 30.315 30.257 30.285 30.255 30.310 30.305 30.345 30.640 32.882 31.632 31.820 32.850 33.248 32.408 32.948 34.210 32.377 30.397 30.362 30.190 30.222 30.288 30.340 30.380 30.413 30.448 30.500 30.545 30.638 30.450 30.425 30.405 30.525 30.427 30.575 31.097 31.523 31.790 31.890 31.875 32.382 34.062 34.870 33.298 35.175 34.287 32.890 32.263 30.750 28.395 28.200 28.100 28.260 28.403 32.033 31.720 31.708 31.805 31.818 31.985 32.053 31.860 31.830 31.790 31.778 31.875 31.860 31.540 30.895 30.093 29.475 28.965 28.507 27.888 27.272 27.075 26.833 25.580 25.020 25.052 25.808 26.688 27.275
32.725 32.725 32.752 32.730 32.812 32.765 32.783 32.927 32.985 37.370 39.480 39.030 36.912 34.278 32.935 32.857 33.583 32.807 32.730 32.728 32.743 32.790 32.880 32.847 32.815 32.768 32.765 33.037 33.403 38.635 39.805 40.482 39.145 35.585 32.985 33.450 32.868 32.927 33.022 34.100 38.688 40.180 37.822 32.908 33.055 33.880 32.998 32.647 32.653 35.025 35.385 36.842 35.270 33.640 34.405 35.520 34.052 32.548 32.478 32.490 32.497 32.485 32.838 33.150 32.802 33.085 33.390 32.795 32.857 32.858 32.823 32.798 32.780 32.750 32.705 32.830 37.748 40.645 41.903 41.320 39.905 39.572 39.708 36.320 35.615 35.413 34.007 33.135 33.647 32.623 32.603 33.050 32.410 32.465 32.435 33.325 34.295 33.353 32.433 32.312 33.732 33.268 32.485 32.127 32.110 32.732 33.145 33.030 34.400 33.850 33.177 32.375 32.132 33.132 35.930 38.073 39.025 39.162 36.020 32.958 37.403 36.025 32.537 32.903 32.363 32.270 33.373 32.615 34.618 37.778 32.948 41.730 39.208 32.478 32.347 34.018 39.575 43.055 35.875 33.323 32.575 32.260 32.378 32.353 31.847 32.728 33.397 33.165 37.685 38.790 39.627 40.150 39.090 38.035 34.185 32.195 31.885 31.810 31.983 32.707 31.670 31.680 31.743 32.750 31.820 31.805 31.807 33.292 32.900 31.958 31.925 32.095 32.923 32.760 32.050 31.990 31.475 31.413 31.450 31.490 31.565 32.998 32.522 31.997 31.720 31.755 31.812 31.702 31.722 32.108 35.088 37.403 38.015 38.932 39.263 39.175 38.833 38.853 38.373 37.222 32.583 34.123 33.450 33.073 31.600 31.540 31.535 31.500 31.505 31.812 32.155 31.945 31.688 32.625 32.130 35.353 37.632 38.605 39.330 39.170 38.255 37.222 33.650 31.445 31.467 31.475 31.475 31.415 31.438 34.185 38.295 38.607 36.268 32.735 31.798 31.962 32.780 31.905 31.795 32.327 34.890 32.662 31.247 31.275 31.257 31.557 32.035 33.182 34.265 32.897 31.765 31.545 31.310 31.192 31.145 31.097 31.052 31.007 31.035 31.035 31.105 31.040 31.025 30.997 30.990 31.003 31.205 31.068 31.083 31.150 31.128 31.145 32.410 32.730 31.128 31.112 31.150 32.378 33.510 33.562 32.585 31.145 31.597 31.070 30.907 30.917 30.897 30.948 31.580 31.515 31.647 31.728 57.560 64.270 64.253 64.395 64.490 64.295 64.238 64.275 49.855 30.913 30.880 30.933 30.958 31.608 30.850 30.865 31.993 30.878 31.215 31.525 32.355 32.553 30.927 30.715 30.720 30.710 30.705 30.685 30.677 30.682 30.665 30.737 30.812 32.068 31.105 30.880 30.885 30.880 35.720 35.833 32.410 32.882 31.510 33.618 33.018 31.103 32.917 31.445 31.108 30.318 30.275 30.237 30.210 30.205 30.247 30.255 30.283 30.278 30.302 30.337 30.362 30.373 30.645 31.042 31.722 33.120 31.600 32.377 32.017 30.892 31.205 30.420 30.340 30.343 30.378 30.387 30.417 30.493 30.542 30.615 30.450 30.423 30.415 30.522 30.440 30.708 32.695 32.107 31.840 31.962 32.033 31.962 32.662 34.365 34.210 37.350 33.945 34.795 34.460 32.130 31.327 29.225 28.140 28.038 28.635 32.000 31.665 31.717 31.788 31.812 32.030 31.970 31.845 31.805 31.765 31.770 31.865 31.552 31.423 30.425 29.890 29.320 28.737 28.358 28.105 27.587 27.087 26.390 25.235 25.013 25.130 26.080 27.160 27.700
32.770 32.740 32.710 33.960 34.638 34.810 34.565 34.500 33.430 34.080 36.198 34.525 32.763 32.765 32.808 32.798 33.275 32.755 32.708 32.725 32.755 32.838 32.820 32.810 33.143 33.040 32.768 34.208 37.575 39.165 40.270 39.708 38.545 34.333 33.250 32.932 32.885 32.885 32.930 33.173 34.923 35.855 34.140 33.650 32.757 32.810 33.272 33.443 34.167 35.377 36.638 38.525 38.932 38.037 35.460 33.525 33.388 32.693 32.472 32.470 32.455 32.622 34.022 33.105 32.930 33.048 32.840 32.842 32.853 32.830 32.835 32.783 32.780 32.740 32.745 35.202 39.682 41.022 41.693 40.655 37.772 35.830 36.467 35.585 35.662 35.710 35.635 34.772 32.565 32.575 32.658 33.037 32.320 32.290 32.225 32.275 32.873 32.393 32.330 32.660 34.048 34.040 32.730 32.932 32.228 32.688 32.083 32.030 32.327 33.122 32.658 31.955 31.965 32.217 32.662 32.472 34.790 37.385 34.900 36.482 39.090 39.015 38.120 36.132 32.580 32.410 33.068 33.007 32.792 35.630 38.765 40.285 44.452 33.107 32.685 36.393 42.458 40.377 39.697 32.640 32.403 32.890 32.632 31.892 32.185 33.080 33.585 32.870 33.545 36.390 37.985 38.798 39.105 37.037 32.385 34.705 36.465 33.868 33.757 31.943 31.698 31.688 32.235 32.030 31.743 31.783 31.820 33.235 32.222 31.925 31.878 31.907 33.060 32.690 32.025 31.913 31.925 32.080 31.500 31.507 32.357 32.372 32.162 31.760 31.760 32.112 31.785 31.733 31.677 31.638 31.948 32.292 36.815 37.865 38.347 38.850 39.620 39.835 39.423 34.333 31.653 34.202 35.250 32.202 31.625 31.552 31.555 31.545 31.478 31.485 31.708 32.015 33.630 32.092 32.030 32.270 34.630 38.555 39.643 38.763 37.730 36.220 31.645 31.500 31.493 31.465 32.025 31.675 31.455 33.905 39.693 39.170 37.770 37.283 35.550 34.230 36.485 35.125 32.097 32.507 32.138 31.253 31.275 31.220 31.318 31.810 32.600 33.050 32.792 32.645 32.302 32.120 31.845 31.627 31.375 31.220 31.150 31.060 31.030 31.010 31.035 31.023 31.060 31.022 31.033 31.007 30.975 31.005 31.040 31.032 31.062 31.100 31.087 31.138 31.147 31.145 31.570 33.410 33.540 33.268 31.260 31.925 31.298 30.887 30.910 30.923 31.122 32.077 30.968 31.850 31.865 30.923 54.405 64.262 64.243 64.537 64.660 64.688 64.350 64.268 55.195 30.938 30.965 31.502 31.932 32.318 32.450 32.585 33.542 33.588 34.423 32.423 31.080 31.570 31.960 30.710 30.693 30.677 30.665 30.693 30.685 30.677 30.642 30.642 30.605 30.862 30.900 30.775 31.835 31.920 34.177 35.265 31.875 31.272 31.862 32.757 32.732 31.140 31.090 31.778 30.835 30.255 30.173 30.155 30.192 30.182 30.177 30.233 30.247 30.230 30.240 30.275 30.278 30.312 30.323 30.337 30.368 30.917 32.827 34.768 35.048 32.620 33.780 30.878 30.645 30.345 30.350 30.355 30.392 30.465 30.573 30.597 30.415 30.400 30.405 30.478 30.432 30.552 32.770 32.368 31.815 32.013 32.073 32.042 31.942 33.050 37.115 36.895 33.698 33.787 35.000 33.685 33.487 32.095 30.427 28.423 29.938 31.763 31.680 31.718 31.800 31.850 32.110 31.915 31.835 31.775 31.763 31.792 31.805 31.300 30.778 30.243 29.702 29.110 28.528 28.142 28.170 27.718 27.142 26.448 25.147 24.970 25.255 26.050 27.690 28.265
32.787 32.820 33.145 34.162 34.853 34.877 34.585 33.690 32.815 32.853 32.840 32.812 32.737 32.770 32.805 33.247 32.980 32.708 32.752 32.743 32.792 33.083 33.270 33.050 32.787 33.240 33.010 35.875 38.530 39.710 40.240 39.170 37.507 35.568 33.577 33.010 33.530 33.160 33.193 33.062 34.722 35.513 34.533 33.640 32.775 32.708 32.682 32.873 33.205 34.952 37.812 39.118 39.908 39.272 38.283 33.757 33.537 33.490 33.190 32.722 32.548 32.690 33.235 32.795 33.318 33.225 32.818 32.838 32.850 32.795 32.778 32.755 32.755 32.740 33.607 38.915 40.445 41.630 40.880 39.048 35.903 33.130 32.980 32.562 35.070 35.610 35.717 34.938 32.860 32.612 32.952 32.542 32.403 32.132 32.107 32.327 32.417 32.278 32.195 32.188 32.635 33.795 33.715 34.237 33.155 32.817 32.470 32.228 32.033 33.040 32.215 31.993 31.975 32.268 32.403 32.015 31.948 32.568 33.572 36.748 38.877 39.518 40.490 39.035 38.048 35.552 32.475 32.613 32.542 32.860 34.482 34.690 40.365 35.757 32.388 32.333 35.763 34.347 34.015 32.278 32.255 32.347 32.972 33.107 32.423 32.720 33.100 33.173 32.013 32.373 33.200 35.802 37.850 34.065 31.783 37.682 38.967 38.390 37.310 34.807 32.620 31.775 32.600 31.747 31.725 31.740 32.090 32.838 31.965 32.253 32.065 32.795 33.007 31.930 32.252 31.625 32.303 33.450 32.200 31.790 32.978 32.347 31.733 32.110 33.565 34.440 33.088 31.702 31.642 32.048 31.860 32.000 33.812 34.435 35.978 37.807 38.827 39.355 39.570 33.912 31.540 31.573 34.335 32.305 31.638 31.590 31.597 31.762 31.745 31.708 31.573 31.528 33.160 34.205 31.995 32.770 31.525 31.592 35.325 37.322 37.335 33.990 31.517 31.515 31.577 31.523 32.905 33.595 34.315 38.390 38.833 39.190 38.860 38.347 37.853 38.033 38.052 37.625 33.855 32.625 31.372 31.275 31.265 31.267 31.795 33.732 34.033 33.915 34.035 33.755 32.478 32.330 32.472 34.355 32.787 31.993 32.065 31.230 31.155 31.075 30.985 30.990 31.017 31.015 31.030 31.045 31.003 31.000 30.985 30.985 30.993 31.025 31.013 31.070 31.175 31.240 31.980 33.423 33.560 31.977 30.945 30.920 30.960 30.895 30.895 30.880 30.945 31.188 31.460 30.950 30.923 30.895 50.147 64.255 64.262 65.240 66.318 66.323 66.963 64.878 61.190 30.940 31.692 33.808 33.638 33.545 33.535 33.498 33.472 33.552 35.540 33.217 32.972 31.208 31.710 30.730 30.733 30.743 30.733 30.712 30.677 30.772 31.498 30.972 30.833 30.737 30.620 30.600 30.583 30.640 30.755 31.015 31.122 31.930 31.448 32.062 33.568 32.445 31.147 30.853 30.455 30.185 30.128 30.142 30.103 30.132 30.167 30.177 30.183 30.193 30.233 30.253 30.240 30.240 30.267 30.292 30.290 30.545 31.513 33.127 30.860 32.963 33.318 31.587 31.533 31.202 30.915 30.475 30.353 30.452 30.552 30.667 30.483 30.415 30.425 30.460 30.423 30.935 31.435 33.053 31.827 32.018 32.107 32.080 32.037 31.908 32.728 33.860 33.600 34.215 33.287 33.265 33.155 32.673 32.003 30.900 31.268 31.690 31.670 31.735 31.773 31.878 32.025 31.858 31.782 31.765 31.710 31.792 31.625 31.965 31.282 30.315 29.497 28.932 28.403 28.237 28.355 27.605 26.913 25.880 25.073 24.985 25.562 26.180 27.292 27.903
32.980 32.760 33.190 34.632 34.732 34.975 33.708 32.745 32.722 32.785 32.790 32.760 32.738 32.743 32.807 33.310 32.737 32.695 32.935 33.135 33.062 33.052 33.035 33.427 33.268 32.740 33.452 36.435 39.195 40.225 40.518 38.677 36.025 35.130 32.785 32.917 33.020 33.893 35.382 33.905 35.220 34.195 33.030 34.130 34.247 32.802 32.682 32.653 32.963 34.295 38.557 39.772 40.245 38.943 36.182 32.535 32.528 32.722 32.618 33.050 32.757 32.667 32.682 32.662 33.010 32.890 32.838 32.842 32.827 32.798 32.732 32.802 32.732 32.752 35.825 39.933 41.400 41.415 39.990 38.150 35.622 35.562 34.658 33.200 32.685 33.588 34.863 33.307 32.960 33.502 32.717 32.423 32.298 32.160 32.085 32.052 32.180 32.260 32.208 32.185 32.335 32.230 32.472 33.728 33.752 32.802 33.222 33.897 33.020 33.048 32.018 31.995 32.068 32.923 31.990 32.005 31.910 33.470 32.458 32.870 35.795 37.408 38.958 39.583 39.377 37.312 34.170 35.310 34.003 32.333 32.857 32.502 32.083 32.917 32.452 32.412 32.458 33.110 32.923 33.155 32.732 32.228 32.263 32.410 32.310 33.323 32.530 32.515 31.833 33.143 31.932 32.458 34.400 32.930 34.257 38.300 39.463 40.042 39.475 38.425 37.357 32.910 32.065 31.715 31.683 31.800 32.923 32.005 31.850 31.895 31.862 33.570 33.737 32.118 31.775 31.690 32.615 31.945 31.735 33.423 33.533 32.330 31.690 31.837 34.088 34.857 32.618 32.272 31.870 32.085 31.927 31.845 31.665 31.780 33.017 34.760 37.802 38.283 35.333 31.587 31.535 31.638 32.020 31.677 31.665 31.745 32.230 32.438 32.185 31.840 31.690 31.642 32.565 33.015 33.205 32.625 32.732 31.985 32.325 31.417 33.228 31.443 31.467 31.470 31.475 31.580 33.403 33.980 34.050 37.388 37.850 38.280 38.745 39.070 39.013 39.615 39.138 36.917 32.085 32.132 31.315 31.255 31.260 31.308 32.060 32.893 35.568 33.980 32.825 32.958 32.862 33.143 34.827 32.660 32.678 31.890 31.858 31.318 31.622 31.222 31.167 31.097 31.045 31.017 30.995 31.038 31.017 31.040 31.017 30.990 30.975 30.960 30.925 30.942 31.013 31.112 31.108 31.175 32.265 31.155 30.985 30.952 30.903 31.753 30.875 31.005 30.990 30.983 30.960 30.923 30.860 30.877 44.787 64.460 64.272 65.440 66.610 66.610 66.260 64.298 64.207 32.357 31.605 33.375 33.550 33.525 33.528 33.458 33.470 33.463 34.675 34.048 30.818 30.858 31.120 31.298 31.528 32.210 32.323 31.720 30.673 30.805 30.900 30.878 31.450 32.660 31.358 30.603 30.595 30.565 30.555 30.562 31.640 31.590 33.165 33.713 32.408 31.212 31.035 32.100 30.270 30.068 30.097 30.097 30.118 30.090 30.132 30.135 30.135 30.145 30.183 30.177 30.192 30.245 30.217 30.243 30.270 30.285 31.767 33.787 30.952 30.360 30.525 30.270 30.420 31.093 31.940 31.288 30.477 30.410 30.490 30.625 30.465 30.440 30.407 30.465 30.458 31.235 33.177 32.910 31.858 31.990 32.815 34.130 32.433 32.048 31.820 31.695 32.535 33.833 34.592 34.035 31.785 33.263 32.952 32.690 32.128 31.657 31.710 31.735 31.773 31.952 31.995 31.835 31.763 31.728 31.702 31.870 31.180 31.070 31.485 29.938 29.307 28.770 28.200 28.095 27.795 27.243 26.372 25.392 25.040 25.083 25.753 26.212 27.212 27.690
32.833 32.895 32.740 32.720 32.783 33.115 33.205 36.147 36.470 33.925 32.917 33.260 32.775 32.735 32.763 32.715 32.662 32.728 33.042 32.952 32.730 32.693 32.628 32.753 33.673 33.143 33.470 38.540 39.630 40.215 39.205 35.920 34.020 34.127 32.903 33.143 33.193 34.097 35.100 35.970 35.827 33.135 33.540 32.740 33.083 33.675 33.518 32.715 33.085 37.955 39.290 40.188 39.493 38.178 33.525 32.495 32.458 32.455 32.467 32.573 32.660 32.710 32.690 32.693 32.768 32.787 32.815 32.827 32.812 32.760 32.737 32.763 32.747 33.458 38.938 40.660 41.912 40.640 39.050 36.423 35.722 36.272 38.230 37.595 35.810 33.248 33.645 32.728 34.045 34.583 32.577 32.327 32.333 32.298 32.150 32.103 32.097 32.138 32.245 32.280 32.375 32.308 32.232 32.257 33.285 34.138 34.158 33.802 33.230 32.495 32.278 32.015 32.505 32.400 31.930 32.007 32.892 33.643 32.138 31.882 32.255 33.757 34.298 38.057 38.520 34.540 34.088 38.315 37.925 34.915 32.565 32.315 31.955 32.147 32.930 32.970 32.637 32.330 32.498 34.045 34.775 33.525 32.222 32.197 32.190 32.270 32.390 33.858 33.200 33.090 31.767 31.850 32.197 32.358 33.757 35.335 37.923 38.748 39.525 38.720 34.772 32.895 33.840 33.237 32.173 32.487 32.695 31.810 31.815 31.770 32.495 32.958 32.607 31.910 32.025 32.400 32.692 31.670 31.760 33.980 34.287 34.020 32.905 31.728 34.417 34.715 35.143 31.778 32.400 31.855 31.717 31.702 31.705 31.775 31.650 32.505 33.050 35.305 32.147 32.440 33.013 32.380 31.675 31.683 31.655 31.917 31.942 32.460 32.350 31.865 31.765 31.743 31.700 31.585 33.665 33.403 32.485 31.860 31.583 31.493 31.448 31.568 31.510 31.530 31.577 31.412 31.340 31.570 32.135 34.173 35.960 37.252 37.735 38.228 38.682 39.188 39.630 36.632 33.037 31.863 31.337 31.302 31.288 31.358 32.903 32.842 33.500 33.537 33.022 34.673 33.650 33.142 33.815 32.092 32.537 31.818 34.123 32.160 32.673 31.523 31.320 31.265 31.198 31.157 31.090 31.062 31.010 30.995 30.997 30.995 30.965 30.967 30.972 30.935 30.920 30.952 31.003 31.000 31.033 31.000 30.965 30.940 30.873 31.162 31.885 30.892 32.070 31.378 31.340 30.865 30.840 30.858 39.270 64.652 64.270 65.068 66.320 65.920 65.175 64.283 64.520 34.397 31.055 33.095 33.545 33.535 33.530 33.498 33.487 33.463 33.438 33.730 32.972 34.037 33.955 33.700 33.705 33.565 33.570 32.717 30.645 30.695 30.698 30.705 30.780 30.895 31.000 31.465 31.097 30.562 30.570 30.580 30.533 30.520 30.823 31.737 32.688 34.007 32.408 31.583 30.627 30.295 30.062 30.042 30.040 30.040 30.100 30.090 30.110 30.130 30.138 30.147 30.167 30.160 30.190 30.200 30.218 30.195 30.173 30.807 30.132 30.153 30.145 30.108 30.108 30.120 30.198 30.943 31.405 30.318 30.420 30.663 30.470 30.407 30.432 30.458 30.432 30.515 33.980 33.590 31.763 33.028 35.085 34.632 36.318 34.228 32.830 31.782 31.663 32.528 34.040 33.420 30.972 32.710 33.375 33.925 32.368 31.642 31.683 31.733 31.785 32.007 31.933 31.830 31.750 31.667 31.640 31.503 30.337 30.378 30.070 29.612 29.050 28.605 28.080 27.748 27.375 26.597 26.075 25.205 25.088 25.200 25.795 26.405 26.997 27.310
34.007 33.625 32.778 32.970 32.880 32.752 34.085 38.545 39.283 38.683 35.377 33.085 34.060 32.948 32.827 32.650 32.662 32.942 33.085 32.780 32.710 32.635 32.585 32.632 32.665 33.588 34.167 37.665 39.330 39.378 38.717 34.340 32.772 33.210 33.312 33.298 33.155 33.160 33.597 35.353 34.060 32.948 32.862 32.693 32.647 32.650 33.467 33.338 35.658 38.780 39.945 39.955 38.732 35.960 32.745 32.557 32.500 32.445 32.432 32.763 33.740 32.738 32.643 32.715 32.772 32.818 32.818 32.787 32.772 32.745 32.778 32.752 32.768 38.080 40.035 41.562 41.245 39.845 37.265 34.565 35.728 37.235 38.300 38.377 38.447 37.155 32.910 33.708 36.057 34.377 32.772 32.443 32.390 32.362 32.198 32.127 32.095 32.095 32.132 32.220 32.333 32.305 32.272 32.267 32.345 32.327 32.923 33.535 33.235 33.150 33.440 32.368 33.073 31.987 31.880 31.858 33.778 32.685 31.925 31.915 32.390 33.052 32.200 32.542 35.247 32.993 36.350 38.700 39.165 38.720 37.600 35.077 32.938 32.315 33.255 33.103 32.757 32.610 32.827 33.020 33.362 33.555 33.013 32.382 32.220 32.175 32.205 32.487 33.303 33.432 32.600 31.868 32.412 31.895 31.693 31.642 32.403 35.327 37.540 37.903 32.990 35.808 35.170 34.515 34.495 35.230 32.050 32.135 31.790 31.745 33.143 31.920 31.802 32.467 32.290 32.967 31.698 31.595 31.632 32.030 33.755 34.505 34.540 33.720 33.235 33.160 33.300 33.250 32.912 31.705 31.727 31.760 32.025 31.683 31.663 31.650 31.650 31.625 31.983 34.630 36.495 35.360 31.815 31.612 31.597 32.220 32.645 32.292 32.195 31.845 31.802 31.823 31.722 31.850 34.908 37.715 37.713 35.268 32.138 31.562 31.503 31.935 33.182 32.013 31.728 31.968 31.565 31.230 31.290 31.368 31.693 34.042 35.330 37.195 37.600 38.143 37.548 33.325 31.708 31.407 31.305 31.340 31.272 31.445 33.713 33.728 34.557 32.853 32.775 33.330 32.978 33.070 32.530 32.130 31.862 31.655 32.180 31.815 32.823 31.667 31.417 31.417 31.460 31.263 31.253 31.185 31.122 31.040 30.995 31.907 30.927 30.958 30.950 30.930 30.958 30.945 30.933 30.913 30.868 30.925 30.903 30.875 30.855 30.897 30.873 30.955 32.100 31.212 32.257 32.507 32.360 30.875 35.080 62.293 64.240 64.262 64.443 64.553 64.283 64.270 64.415 41.595 30.905 32.385 33.555 33.552 33.548 33.497 33.470 33.450 33.480 33.647 34.045 33.482 33.490 33.512 33.517 33.572 33.573 33.395 30.870 30.660 30.663 30.708 30.677 30.698 30.722 30.790 30.818 30.580 31.253 31.345 30.638 30.568 30.495 30.510 30.612 30.805 32.037 30.540 31.605 31.540 31.120 30.462 30.045 30.042 30.055 30.060 30.057 31.493 30.077 30.093 30.108 30.138 30.138 30.153 30.153 30.132 30.090 30.105 30.103 30.112 30.085 30.052 30.062 30.080 30.118 30.128 30.147 30.175 30.208 30.472 30.513 30.405 30.413 30.440 30.413 30.467 31.597 31.785 31.792 34.100 33.542 33.835 35.202 36.130 36.190 33.490 31.783 31.645 31.525 32.178 34.605 33.322 33.620 33.340 31.698 31.667 31.682 31.737 31.818 32.083 31.892 31.795 31.728 31.667 31.685 32.280 30.695 29.958 30.035 29.685 28.747 28.365 27.800 27.263 26.800 26.290 25.728 25.110 25.068 25.285 25.743 26.400 26.940 26.970
32.752 32.930 32.838 32.767 32.787 32.745 36.868 39.200 39.805 38.680 33.732 32.760 34.987 34.250 32.705 32.615 32.685 33.577 32.920 32.900 32.753 32.728 32.620 35.442 35.380 33.335 33.548 32.967 35.632 37.290 36.662 32.900 32.780 32.820 32.833 32.925 33.097 33.140 33.450 33.112 33.245 33.410 32.982 32.783 32.660 32.653 32.653 33.130 38.240 39.448 40.585 39.315 36.728 32.537 32.515 32.542 32.645 32.522 32.480 33.560 33.243 32.755 32.702 32.770 32.765 32.808 32.785 32.767 32.735 32.772 32.747 32.743 34.800 39.475 41.005 41.620 40.323 38.888 33.382 32.605 33.882 37.470 38.340 38.397 38.467 34.452 32.537 36.170 36.985 32.298 32.210 32.375 32.345 32.270 32.272 32.220 32.162 32.125 32.192 32.213 32.323 32.382 32.393 32.300 32.303 32.245 32.192 32.275 32.463 33.345 33.548 33.327 33.470 32.728 31.970 32.755 33.722 31.907 31.930 32.062 32.835 32.353 32.518 32.217 31.978 33.068 34.855 36.893 37.958 38.895 39.428 38.787 37.850 36.030 32.702 33.090 32.970 32.188 32.185 33.430 32.965 32.283 32.427 32.500 32.232 32.225 32.220 32.182 32.190 32.325 32.950 32.875 32.370 31.712 31.653 31.767 32.083 31.653 33.107 34.845 33.505 37.720 38.088 37.097 35.745 33.985 31.802 31.810 31.835 32.545 32.835 31.790 31.958 32.295 32.135 32.630 31.545 31.580 31.622 32.013 32.520 33.927 34.472 34.503 34.322 34.393 34.200 34.197 33.470 31.675 31.753 31.757 31.717 31.685 31.660 31.667 31.673 31.833 31.635 33.127 35.770 33.702 31.740 32.088 33.580 33.065 32.145 32.693 32.103 31.853 31.775 31.737 31.708 32.155 36.432 38.147 39.138 39.603 37.693 33.283 31.538 33.300 34.830 33.417 31.952 31.977 32.215 31.167 31.195 31.260 31.312 31.923 31.780 33.702 34.330 36.603 33.440 31.450 31.445 31.327 31.327 31.333 31.368 33.180 32.952 33.042 33.787 32.792 32.302 32.452 32.525 32.445 32.708 32.140 32.860 31.573 32.673 31.395 31.195 31.243 31.263 31.278 31.315 31.307 31.320 31.315 31.240 32.072 31.103 31.767 31.912 30.905 30.925 30.915 30.910 30.942 30.925 30.915 30.862 30.870 30.882 30.885 30.880 30.892 30.892 30.967 31.017 31.790 32.270 32.213 33.178 30.980 31.798 57.690 64.265 64.268 64.323 64.262 64.268 64.265 64.332 42.330 30.892 32.237 33.537 33.548 33.507 33.507 33.482 33.500 33.455 33.427 33.445 33.480 33.490 33.498 33.505 33.522 33.557 33.700 31.465 30.628 30.677 30.670 30.650 30.612 30.605 30.685 30.695 30.647 30.573 30.587 30.517 31.500 30.927 30.505 30.493 30.477 30.458 30.403 30.360 30.705 30.915 31.085 30.765 30.497 30.557 30.260 30.035 31.272 30.030 30.035 30.045 30.100 30.345 30.462 30.122 30.080 30.073 30.052 30.035 30.020 30.020 29.990 30.013 30.020 30.075 30.067 30.080 30.087 30.158 30.460 30.480 30.413 30.395 30.420 30.417 30.468 30.955 31.395 31.740 33.403 36.662 34.325 33.600 33.088 32.537 34.950 33.528 32.210 31.667 31.788 32.217 32.055 33.615 33.162 31.663 31.653 31.685 31.735 31.837 32.040 31.795 31.743 31.677 31.655 31.712 29.618 29.305 29.558 29.480 29.618 29.337 28.122 29.240 27.327 26.642 26.155 25.435 25.065 25.130 25.435 25.840 26.295 26.750 27.017
32.710 32.695 32.728 32.790 32.933 34.292 38.522 39.787 39.255 36.903 32.660 32.667 33.052 33.143 32.655 32.643 32.945 33.068 32.763 33.403 33.245 32.755 32.978 39.857 39.482 38.568 37.143 33.275 32.840 32.755 32.880 32.830 32.915 32.800 32.827 32.855 32.847 34.002 33.833 32.893 33.560 32.780 33.025 33.195 32.970 32.623 32.882 36.198 38.908 40.045 40.005 38.630 33.755 32.965 33.095 32.430 33.320 33.688 33.123 33.248 32.810 32.847 32.780 32.805 32.783 32.792 32.760 32.787 32.717 32.772 32.745 33.305 37.650 40.370 41.620 41.175 39.667 36.412 32.695 32.385 34.237 38.483 38.480 38.482 36.772 32.528 33.357 37.028 35.952 32.202 32.365 32.315 32.365 32.222 32.208 32.188 32.255 32.255 32.228 32.278 32.342 32.427 32.393 32.323 32.345 32.292 32.225 32.372 32.310 32.257 32.553 33.790 35.312 35.963 35.005 34.888 34.355 32.365 31.885 32.128 32.768 31.983 32.002 31.943 32.982 33.630 34.713 34.743 35.253 36.495 37.912 38.685 39.037 37.675 33.737 32.675 32.080 32.510 33.050 33.052 32.377 32.283 32.382 32.423 32.260 32.217 32.662 32.417 32.217 32.182 32.150 32.308 32.347 32.588 31.892 32.068 31.755 31.638 31.683 32.235 35.505 38.033 38.760 38.730 38.393 36.488 33.595 32.145 31.868 33.018 32.323 31.917 31.890 32.007 32.575 31.583 31.540 31.562 31.575 32.455 31.978 32.182 33.280 34.427 33.620 34.395 34.423 34.465 34.065 33.405 32.685 32.123 31.900 31.640 31.673 32.287 32.778 35.100 32.755 31.873 33.545 31.792 31.533 33.312 38.610 36.537 32.728 32.798 31.938 31.820 31.755 31.737 31.847 34.145 37.665 38.753 39.635 38.990 38.097 36.405 31.840 32.420 34.292 33.818 32.688 31.740 31.340 31.157 31.173 31.208 31.847 32.580 32.680 31.872 31.688 33.200 31.965 31.455 31.495 31.347 31.337 31.340 31.425 32.357 34.618 33.930 34.373 32.312 32.127 33.330 32.208 32.417 32.333 32.403 32.092 31.423 34.850 35.452 34.600 31.645 31.200 31.247 31.240 31.260 31.312 31.337 32.075 34.408 33.020 31.233 31.125 31.387 31.263 30.995 30.952 30.920 30.897 30.920 30.923 30.923 30.913 30.900 30.880 30.880 30.860 30.913 31.005 31.033 31.173 34.400 34.783 30.940 31.498 57.833 64.382 64.485 64.500 56.537 56.220 50.390 50.500 32.080 30.925 31.728 33.568 33.565 33.530 33.513 33.485 33.475 33.467 33.445 33.455 33.472 33.483 33.502 33.520 33.520 33.562 33.650 32.073 30.562 30.595 30.570 30.570 30.535 30.532 30.562 30.618 32.037 30.503 30.452 30.450 30.538 30.718 30.510 30.462 30.452 30.397 30.583 30.333 30.312 30.320 30.330 30.382 30.665 31.340 31.897 31.190 32.857 30.073 30.052 30.048 30.093 32.568 34.103 30.210 30.028 30.038 30.438 29.997 29.955 29.925 29.958 29.977 30.000 30.020 30.017 30.042 30.048 30.175 30.490 30.487 30.380 30.425 30.415 30.423 30.410 30.903 31.388 31.730 31.938 34.498 34.948 34.045 34.243 32.160 33.518 36.312 33.855 31.948 31.750 31.653 31.557 31.705 32.425 31.603 31.628 31.665 31.740 31.892 31.960 31.747 31.727 31.673 31.600 31.772 28.083 30.110 30.798 29.818 29.235 29.522 29.045 31.195 27.557 27.083 26.305 27.073 26.403 25.060 25.595 26.100 26.448 27.747 27.190
32.753 32.738 32.685 32.677 33.015 36.877 39.283 40.158 38.533 33.605 33.033 32.820 32.693 32.680 32.607 32.670 33.580 32.842 32.660 32.680 33.475 34.128 35.030 40.450 41.018 40.377 38.870 33.885 32.675 32.710 32.755 32.783 32.858 32.972 32.862 32.842 32.825 33.118 33.055 33.042 33.347 32.760 32.735 32.710 32.888 33.230 33.670 38.393 39.585 40.160 39.085 36.248 32.550 32.618 32.872 32.467 33.005 34.925 34.287 32.802 32.790 32.892 32.807 32.830 32.820 32.823 32.785 33.213 33.650 32.775 32.762 37.153 39.763 41.153 41.498 40.947 38.222 35.993 35.090 34.002 36.515 38.507 38.535 37.997 33.153 32.505 32.842 34.482 33.708 32.377 32.362 32.200 32.160 32.188 32.248 32.417 32.375 32.327 32.267 32.323 32.285 32.318 32.285 32.250 32.245 32.193 32.208 32.225 32.195 32.205 32.182 32.397 34.548 36.030 36.710 36.778 36.375 32.930 32.083 33.050 32.040 32.045 31.972 32.000 33.120 32.000 32.290 33.342 34.615 34.850 35.100 36.107 37.557 35.257 35.370 36.880 34.147 32.425 33.108 32.432 32.900 32.660 33.018 33.853 32.482 32.327 32.568 32.938 32.607 32.268 32.225 32.175 32.193 32.243 32.607 32.873 32.015 31.670 31.733 32.632 32.320 33.368 36.895 38.045 39.857 38.798 38.100 36.920 33.332 32.520 31.825 31.972 32.905 32.107 32.825 33.250 31.552 31.560 31.967 32.097 31.695 31.702 31.753 32.667 32.500 32.975 33.975 34.397 34.382 33.965 33.180 33.235 32.423 31.622 32.503 34.655 33.645 33.200 31.688 31.562 31.532 31.510 31.503 32.982 37.615 36.307 35.690 32.802 32.390 32.507 31.737 31.690 32.125 36.247 38.225 39.222 39.535 38.540 37.528 33.287 31.702 32.042 33.158 33.090 31.730 31.738 31.165 31.147 31.173 31.615 32.118 35.033 32.778 32.080 32.323 31.825 31.712 31.532 31.353 31.340 31.353 31.292 31.382 31.987 33.173 31.810 33.123 32.960 34.447 33.390 34.105 34.165 32.580 32.658 31.445 31.510 37.312 37.358 37.193 36.060 36.510 32.982 31.190 31.212 31.263 31.290 31.710 32.330 32.138 31.592 33.853 32.397 32.940 31.240 31.100 31.042 30.952 30.890 30.900 30.935 30.917 30.903 30.958 30.955 30.923 30.915 31.955 32.070 31.135 31.477 31.593 30.952 30.950 39.935 42.732 34.765 31.605 30.895 30.938 32.500 32.490 32.443 31.215 31.452 33.580 33.568 33.540 33.507 33.505 33.487 33.463 33.442 33.448 33.455 33.490 33.515 33.530 33.542 33.557 33.565 32.283 30.575 30.355 31.737 33.930 39.610 42.153 46.830 54.425 54.770 54.650 31.478 30.330 30.390 30.462 30.827 30.420 30.368 30.882 32.215 30.388 31.667 30.933 30.385 30.310 30.310 30.285 31.010 31.835 33.590 30.662 31.052 30.445 30.467 31.620 32.158 30.812 30.110 30.055 32.165 31.175 30.318 29.888 29.903 29.940 29.960 29.965 30.003 29.987 30.033 30.327 30.475 30.462 30.382 30.413 30.410 30.403 30.413 30.845 31.325 31.705 31.905 33.830 35.205 35.890 33.397 33.495 35.327 35.585 35.153 34.362 33.548 31.780 31.695 32.005 32.368 31.587 31.615 31.658 31.745 31.925 31.920 31.763 31.680 31.640 31.615 30.970 27.872 28.645 29.302 29.105 28.382 27.948 29.208 30.175 27.837 26.882 26.983 28.827 29.210 25.040 25.618 26.722 27.097 28.253 27.565
33.880 33.205 32.682 32.713 34.638 38.722 39.830 39.155 35.702 32.682 32.975 32.838 32.702 32.653 32.625 32.673 32.897 32.675 32.683 32.522 32.513 32.897 34.778 38.552 40.772 40.278 36.900 32.675 32.667 32.695 32.688 32.760 32.825 32.877 32.945 32.905 32.908 33.035 33.145 32.943 32.987 33.855 32.955 32.688 32.683 32.677 36.545 39.107 40.235 39.622 38.470 34.075 34.153 34.820 33.370 34.507 35.780 34.757 34.917 33.295 34.698 32.807 32.795 32.830 32.812 32.802 33.260 33.225 33.060 32.910 32.915 40.095 40.690 42.190 40.923 40.150 36.528 35.857 35.802 35.745 35.640 37.905 38.588 35.715 32.505 32.540 33.557 32.460 32.438 32.312 32.240 32.167 32.190 32.192 32.285 32.378 32.327 32.535 32.330 32.290 32.295 32.240 32.173 32.158 32.140 32.122 32.130 32.180 32.145 32.147 32.100 32.085 32.480 33.385 36.020 36.975 36.830 36.255 32.550 32.725 32.045 32.002 32.060 32.713 32.120 31.983 33.037 33.365 33.260 33.980 34.878 34.930 35.015 34.300 36.983 39.002 38.463 37.495 35.270 31.995 32.190 33.065 33.853 33.990 32.250 32.228 33.020 32.540 32.310 32.243 32.255 32.217 32.208 32.162 32.315 33.798 35.588 32.735 32.250 32.228 31.948 32.667 33.993 34.565 37.275 38.000 38.623 37.630 33.158 35.103 34.412 33.432 34.055 33.965 32.667 32.122 31.573 31.597 32.553 31.943 31.677 31.750 31.755 32.573 32.010 31.798 31.837 33.350 33.815 34.028 32.528 32.048 32.320 35.357 32.237 33.128 32.645 31.560 31.535 31.548 31.495 31.500 31.493 31.542 32.355 34.432 34.145 32.340 33.467 32.938 32.075 31.798 31.755 33.845 37.783 39.540 39.075 38.130 36.285 32.228 31.555 31.517 31.650 32.013 32.528 31.635 31.173 31.153 31.167 31.292 31.310 32.265 32.658 31.715 32.185 32.522 32.380 31.673 31.358 31.372 31.350 31.310 31.320 31.565 31.743 32.410 33.952 33.925 35.115 35.213 34.197 35.128 34.310 31.780 31.413 33.892 38.018 38.010 37.830 37.518 37.295 37.125 37.993 35.478 31.432 31.265 31.247 31.227 31.255 32.385 32.415 34.230 33.505 33.627 33.325 32.022 31.548 32.260 31.000 30.900 30.915 30.923 30.972 30.962 30.962 30.927 31.228 31.795 31.243 30.900 31.022 30.952 30.925 30.960 30.975 31.278 31.388 32.945 34.917 34.487 34.908 34.530 32.463 31.368 33.750 33.585 33.542 33.522 33.502 33.480 33.463 33.430 33.455 33.475 33.498 33.503 33.522 33.533 33.570 33.555 32.610 30.575 42.965 60.845 62.765 63.918 63.878 63.800 63.780 63.798 60.037 34.298 30.288 30.347 30.465 30.445 30.380 30.300 31.612 31.017 30.478 30.782 31.780 30.675 31.052 30.325 30.288 30.245 30.645 30.423 30.285 30.485 31.140 31.093 30.985 30.655 30.345 30.177 30.677 34.895 36.170 32.873 29.862 29.892 29.897 29.913 29.945 29.927 29.967 30.030 30.373 30.450 30.478 30.365 30.380 30.378 30.388 30.370 31.023 32.280 31.618 32.588 33.305 34.737 36.045 36.100 33.692 32.217 35.647 34.610 34.700 34.028 31.778 31.693 32.405 31.868 31.587 31.653 31.675 31.762 32.015 31.825 31.725 31.653 31.630 31.655 29.987 27.888 27.870 27.895 28.305 28.682 29.035 29.965 29.247 26.858 29.405 26.615 28.217 27.905 25.198 26.495 31.083 27.660 27.312 27.435
33.885 34.162 33.525 33.240 37.603 39.375 39.680 38.500 32.670 32.675 32.643 32.713 32.675 32.588 32.643 32.655 32.667 32.945 33.985 33.713 32.528 32.518 33.395 38.972 41.283 39.465 34.823 32.732 32.658 32.660 32.655 32.697 32.697 32.688 32.862 33.030 34.042 33.110 32.943 33.037 33.618 34.910 34.787 33.030 32.638 33.747 38.620 39.757 40.535 38.975 36.068 33.530 38.682 39.268 36.810 34.053 35.257 36.182 34.410 34.427 33.340 32.780 32.825 32.780 32.755 32.760 32.725 32.842 32.753 32.770 36.425 40.535 41.490 41.230 40.020 38.158 35.890 35.840 35.785 35.823 35.868 34.830 35.757 33.055 32.455 32.823 32.840 32.435 32.397 32.222 32.143 32.145 32.180 32.260 32.212 32.255 32.225 32.845 33.550 32.540 32.368 32.220 32.285 32.255 32.263 32.180 32.160 32.120 32.107 32.135 32.040 32.022 32.052 32.472 33.505 35.445 36.265 36.752 37.630 36.122 34.173 33.030 32.500 32.643 31.970 32.022 32.028 32.708 33.765 32.387 32.408 33.645 34.177 35.090 38.150 39.160 39.643 39.615 38.482 36.610 34.028 32.695 33.377 32.463 32.087 32.167 32.555 32.370 32.505 32.347 32.298 32.230 32.362 32.608 35.948 41.960 40.025 35.435 32.857 32.272 32.228 34.467 33.423 32.605 31.885 33.592 36.780 34.688 34.795 38.083 38.135 37.033 35.440 34.675 34.597 34.170 32.990 32.248 32.713 33.615 32.627 31.892 32.220 32.060 31.722 31.755 32.270 32.833 33.545 33.362 31.725 32.833 32.972 35.100 33.875 34.428 34.670 33.982 32.233 31.505 31.460 31.468 31.460 31.540 33.975 35.382 34.305 31.743 31.903 32.060 32.182 31.962 32.065 31.642 31.642 35.935 37.970 37.618 33.355 31.570 31.590 31.538 31.985 32.253 31.417 31.170 31.155 31.205 31.177 31.142 31.130 31.413 31.575 32.173 32.103 32.292 31.885 31.448 31.430 31.400 31.333 31.292 31.212 31.333 31.500 34.290 34.730 33.955 33.085 33.965 33.715 36.662 34.225 33.787 33.188 36.303 37.300 37.568 37.868 38.028 37.930 38.948 39.875 39.665 38.373 35.940 34.355 31.698 31.228 31.230 34.805 34.338 31.432 32.555 33.615 34.963 38.420 33.827 32.560 31.270 31.030 30.983 30.960 30.927 30.938 30.952 30.923 30.917 30.910 30.897 31.502 31.635 30.872 30.888 30.925 31.295 31.288 34.783 35.503 35.167 34.725 33.100 31.997 30.885 33.787 33.570 33.545 33.528 33.502 33.480 33.480 33.435 33.448 33.467 33.465 33.493 33.515 33.528 33.550 33.572 32.495 30.592 39.190 63.835 63.795 63.770 63.780 63.770 63.772 63.780 62.077 35.213 30.295 30.380 30.423 30.403 30.292 30.280 32.228 31.812 30.452 31.298 31.487 31.573 31.825 30.247 30.260 30.260 30.450 30.320 30.227 30.233 30.205 30.265 30.240 30.920 30.225 29.977 32.030 34.605 35.260 30.620 29.802 29.812 29.865 29.878 29.868 29.897 29.915 30.083 30.395 30.432 30.468 30.335 30.372 30.368 30.417 30.345 32.252 33.522 31.825 33.625 35.355 35.115 33.287 34.353 36.022 33.975 34.815 32.950 33.465 33.780 33.890 32.438 32.792 31.615 31.597 31.670 31.667 31.802 32.077 31.767 31.693 31.635 31.603 31.790 30.460 28.118 27.952 27.923 27.888 28.708 28.740 29.670 29.198 27.413 28.298 27.417 29.792 27.193 25.368 28.003 29.805 30.097 28.042 27.480
32.765 32.740 32.783 35.410 38.840 39.865 39.057 36.463 32.660 32.662 32.655 32.830 32.600 32.592 32.803 32.805 32.978 33.498 33.928 33.662 32.537 32.562 36.555 40.070 40.338 37.625 33.205 33.455 33.435 33.198 32.798 32.688 33.237 32.655 32.795 33.185 35.015 33.248 32.872 32.908 32.857 33.217 34.400 32.697 32.955 37.505 38.927 39.757 39.455 38.045 33.188 33.980 39.585 39.443 38.143 32.908 33.140 32.905 33.135 33.605 32.802 32.810 32.827 32.765 32.740 32.722 32.755 32.750 32.732 34.537 39.590 40.830 41.635 40.615 38.350 33.660 34.245 35.695 35.750 35.840 35.855 35.785 33.622 32.475 32.497 33.292 32.467 32.312 32.243 32.295 32.173 32.300 32.302 32.202 32.210 32.290 32.180 33.415 33.248 33.280 33.472 32.875 35.408 33.085 32.290 32.428 32.272 32.105 32.088 32.112 32.030 32.132 32.105 32.052 34.278 36.265 34.100 35.423 36.380 36.548 36.632 35.810 34.920 33.670 32.720 31.977 32.087 33.430 31.955 32.057 32.020 32.185 33.550 32.778 34.778 37.077 38.350 39.145 39.600 38.835 36.190 33.262 34.607 33.033 32.720 32.597 32.015 32.890 32.900 32.475 32.585 32.375 32.320 32.925 32.613 34.917 34.745 34.342 32.118 32.162 34.557 34.620 33.325 32.427 31.952 31.805 31.960 32.520 34.385 37.912 38.702 38.750 38.287 37.318 36.137 35.105 34.335 32.900 33.825 34.143 34.090 33.897 32.550 31.653 31.673 31.693 32.208 32.345 31.740 31.807 31.645 31.645 33.775 32.368 32.412 34.840 36.460 38.615 35.677 33.135 32.610 31.658 31.480 32.715 38.522 38.675 34.635 31.735 31.550 31.545 31.835 32.382 31.593 31.728 31.975 31.842 31.555 33.393 32.888 31.580 31.535 31.632 32.127 33.415 32.568 31.282 31.228 31.305 31.222 31.142 31.103 31.057 31.062 31.520 31.647 31.737 31.487 31.360 31.440 31.448 31.340 31.263 31.270 31.212 31.260 31.370 32.105 32.263 31.275 31.400 33.257 33.950 33.912 32.717 31.245 33.775 35.205 36.783 37.097 37.380 37.655 39.900 40.478 40.310 40.045 39.807 39.495 38.350 34.853 32.267 37.132 32.318 31.747 31.315 31.315 32.903 35.732 33.713 33.900 33.205 32.265 31.405 31.115 31.068 30.980 30.958 30.935 30.923 30.925 30.933 30.910 30.962 30.880 30.872 30.863 30.845 30.853 31.530 33.612 35.513 33.155 31.800 31.930 31.075 32.895 33.568 33.542 33.540 33.513 33.583 34.438 33.475 33.695 33.480 33.480 33.495 33.517 33.528 33.555 33.562 33.888 30.458 32.735 63.985 63.787 63.783 63.827 63.912 63.850 63.800 63.158 36.905 30.333 30.363 30.368 30.335 30.245 30.237 31.628 33.448 32.845 32.765 31.830 31.483 31.188 31.257 30.532 30.212 30.255 30.290 30.735 30.215 30.183 30.157 30.182 30.243 30.095 30.045 30.770 31.710 31.167 29.872 29.865 29.823 29.820 29.835 29.850 29.862 29.873 30.173 30.372 30.427 30.443 30.327 30.360 30.372 30.405 30.355 30.770 32.267 32.018 34.360 35.037 33.432 33.575 33.123 33.943 33.420 33.323 32.880 32.795 34.622 36.217 35.118 32.605 31.570 31.585 31.645 31.708 31.830 31.855 31.737 31.660 31.600 31.593 31.772 29.445 29.272 28.635 27.995 27.960 27.950 28.038 28.788 28.993 26.550 26.458 28.808 32.062 25.502 25.615 29.075 30.465 29.995 27.325 27.493
32.757 32.752 33.208 37.830 39.893 40.640 37.575 32.860 32.618 32.673 32.665 32.682 32.620 32.597 33.360 32.818 33.670 33.208 33.435 33.138 33.097 33.555 38.860 40.855 39.870 36.500 32.708 32.717 32.820 33.147 33.655 33.772 33.400 33.705 32.740 34.068 34.215 32.755 32.770 32.800 32.862 33.022 33.920 33.393 32.768 33.298 36.693 39.075 38.802 35.410 32.495 32.490 36.010 38.077 36.550 32.722 33.140 32.795 32.792 32.792 32.778 32.807 32.792 32.757 32.743 32.708 32.750 32.743 33.007 38.253 40.268 41.690 41.188 39.818 35.493 32.412 32.365 33.025 35.250 35.463 35.682 35.085 32.833 32.482 32.722 32.795 32.430 32.353 32.132 32.167 32.345 32.318 32.235 32.340 32.312 32.312 32.915 33.860 33.280 32.540 32.840 34.138 35.190 34.545 32.943 32.590 32.385 32.268 32.103 32.057 32.037 32.065 32.062 32.110 32.497 35.623 34.465 34.635 34.615 36.077 35.952 36.125 36.042 36.135 34.057 32.783 32.737 32.878 31.983 32.020 31.985 32.738 32.487 32.185 32.035 32.357 33.825 37.095 38.342 37.825 33.717 36.205 37.875 37.050 35.825 33.180 32.147 33.052 32.417 32.570 32.037 32.322 32.342 32.410 32.248 32.397 33.160 32.393 32.127 32.050 34.130 34.540 33.665 34.623 32.007 31.970 32.055 34.092 34.570 34.068 36.365 37.967 38.975 38.770 38.145 37.300 33.260 33.412 34.482 34.412 34.265 34.088 32.377 31.920 31.698 31.700 31.843 31.890 31.635 31.695 31.675 31.735 32.162 32.292 31.728 33.538 36.090 38.603 35.670 35.088 35.025 34.057 32.370 34.095 37.970 38.380 33.980 31.800 31.542 31.480 31.470 31.892 31.560 32.690 31.708 31.593 31.645 31.567 31.562 31.545 31.515 31.720 31.820 31.767 31.445 31.302 31.295 31.335 31.253 31.220 31.155 31.178 31.122 31.195 31.263 31.343 31.400 31.460 31.455 31.382 31.365 31.265 31.283 31.230 31.192 31.120 31.210 31.245 31.260 31.945 32.260 32.330 32.603 31.507 31.283 31.165 32.475 36.010 36.077 36.423 37.485 39.825 40.103 40.350 40.498 40.535 40.265 39.978 39.747 36.243 32.237 31.045 31.177 31.060 31.077 31.345 34.005 34.630 32.638 32.757 33.698 33.215 32.592 32.588 31.750 31.610 31.105 30.927 30.905 30.910 30.900 30.878 30.900 30.880 30.868 30.840 30.823 30.820 32.690 31.560 31.327 31.408 31.772 30.930 32.660 33.743 34.238 32.680 32.342 32.812 32.853 32.350 32.772 33.460 33.475 33.510 33.502 33.525 33.522 33.558 33.537 30.480 30.497 63.963 63.768 63.950 64.202 64.210 64.430 63.798 64.050 42.645 30.323 30.850 31.580 31.790 32.695 33.147 33.035 33.193 32.990 32.548 30.302 32.585 30.847 31.440 32.195 30.335 30.280 30.257 30.315 30.163 30.122 30.118 30.115 30.115 30.095 30.057 30.677 31.155 30.177 29.923 29.948 29.945 29.903 29.840 29.815 29.812 29.878 30.275 30.335 30.417 30.438 30.323 30.330 30.327 30.372 30.302 30.770 31.615 31.525 32.960 34.850 35.458 36.158 35.880 33.930 33.553 32.943 34.885 33.487 34.515 33.555 35.028 32.530 31.585 31.587 31.650 31.653 31.882 31.825 31.690 31.642 31.603 31.580 31.717 29.802 29.875 29.380 28.942 28.315 28.060 28.035 28.073 28.073 28.050 26.175 30.180 30.882 25.995 25.827 28.052 29.522 30.360 28.263 27.612
32.730 32.748 35.610 38.930 39.798 38.932 35.178 32.875 32.645 32.638 32.812 32.638 32.555 33.138 33.490 32.920 33.385 32.625 32.662 32.792 33.302 36.232 39.917 40.628 39.103 35.912 32.665 32.653 32.713 32.787 32.798 32.993 33.717 34.482 34.628 36.160 34.085 32.868 33.030 32.765 32.845 32.822 33.967 32.908 32.647 32.622 32.555 35.075 36.972 33.202 32.505 32.517 32.967 32.507 32.815 32.760 32.910 32.787 32.853 32.775 32.795 32.805 32.763 32.748 32.692 32.705 32.733 32.757 35.475 39.700 41.073 41.510 40.325 38.835 35.330 32.795 32.397 32.355 32.385 33.842 33.732 33.450 32.438 32.533 32.878 32.485 32.330 32.300 32.235 32.232 32.310 32.307 32.278 32.300 32.167 32.173 33.245 34.075 32.188 32.220 32.295 33.255 34.638 34.840 34.763 34.510 33.142 32.355 32.240 32.113 32.110 32.138 32.112 32.095 32.143 31.930 34.608 32.892 34.760 34.588 34.162 34.213 35.215 35.970 36.222 34.990 35.375 35.693 33.193 31.993 33.505 33.330 31.757 32.022 31.853 32.170 31.950 31.930 32.647 35.917 32.905 38.018 39.305 38.728 39.132 37.842 35.522 33.695 32.700 32.037 32.537 31.920 31.895 32.458 32.397 32.597 32.358 32.412 32.525 37.897 40.862 32.833 32.635 32.158 32.458 33.438 32.980 33.345 32.202 31.753 32.640 33.982 36.733 37.910 38.560 37.545 32.592 35.748 36.015 34.893 34.485 34.528 34.330 32.320 31.702 31.695 31.655 31.602 31.510 31.552 31.597 32.368 31.930 31.693 31.810 33.478 34.545 37.175 34.622 31.980 33.667 35.147 34.380 36.765 38.772 35.772 33.255 32.388 31.550 31.460 31.438 31.450 31.462 32.040 31.472 32.240 32.035 31.577 31.560 31.560 31.517 31.507 31.427 31.365 31.390 31.425 32.013 31.665 31.375 31.290 31.290 31.465 31.260 31.250 31.347 31.415 31.427 31.423 31.478 31.370 32.338 31.265 31.298 31.750 31.970 31.323 31.147 31.110 31.185 31.898 32.287 31.783 31.353 32.535 32.153 31.342 31.778 35.123 33.857 31.710 34.375 36.562 38.955 39.600 39.915 40.285 40.620 40.548 40.452 32.252 31.062 31.023 31.020 31.025 31.028 31.302 32.785 33.333 31.257 31.345 32.618 33.408 33.145 33.340 33.452 31.555 31.160 31.087 30.897 30.838 30.845 30.850 30.870 30.853 30.875 30.868 30.855 30.850 30.812 30.775 31.298 31.305 30.850 30.842 31.215 32.607 31.650 31.745 31.420 31.097 31.400 32.397 32.500 33.615 33.487 33.480 33.495 33.513 33.545 33.583 33.835 30.728 30.455 60.835 63.790 63.833 65.945 65.982 66.210 64.000 63.947 50.743 30.337 32.278 33.115 33.083 33.045 33.045 32.993 32.993 33.005 33.487 30.490 31.745 32.640 30.130 30.190 30.250 30.333 30.983 30.173 30.073 30.062 30.050 30.045 30.062 30.048 30.030 30.193 30.395 30.202 29.950 29.978 29.983 29.938 29.968 29.925 29.917 29.990 30.283 30.355 30.435 30.425 30.300 30.327 30.333 30.412 30.278 30.702 33.213 31.730 32.580 35.845 35.220 35.380 35.623 35.590 33.018 32.202 33.685 35.472 33.130 35.000 35.188 31.792 31.570 31.608 31.655 31.702 31.930 31.772 31.663 31.603 31.587 31.600 31.993 30.305 30.263 29.795 29.365 28.802 28.548 28.180 28.160 28.175 29.272 29.427 30.568 29.493 25.670 25.923 26.427 27.358 28.235 27.392 27.925
32.965 33.253 37.985 39.590 39.515 36.775 33.060 33.943 32.780 32.673 32.625 32.533 32.573 33.978 33.405 32.770 32.573 32.542 32.555 32.528 32.998 38.647 40.785 40.278 38.423 34.070 32.680 32.667 32.730 32.775 32.800 32.790 33.485 35.585 37.338 37.420 35.110 32.845 33.067 32.963 32.585 32.503 32.685 33.025 32.597 32.522 32.562 32.507 32.522 32.518 32.507 32.500 32.493 32.445 32.675 32.952 32.778 32.785 32.857 32.745 32.820 32.812 32.770 33.862 33.568 32.745 32.737 33.815 38.855 40.493 41.562 40.910 39.618 36.740 36.095 35.868 34.960 32.775 32.405 32.338 32.548 32.530 32.432 33.320 32.918 32.380 32.315 32.338 32.403 32.327 32.327 32.287 32.438 32.362 32.255 32.495 34.060 33.458 32.202 32.522 33.192 32.772 33.795 34.590 34.655 34.850 35.305 35.010 33.995 33.160 32.420 32.217 32.188 32.160 31.970 31.908 32.270 32.380 33.083 32.228 32.298 32.240 32.455 33.755 34.908 35.158 37.900 37.500 36.592 33.825 34.955 32.542 31.798 31.800 31.905 32.285 32.275 31.842 31.862 31.888 34.213 37.165 38.310 39.150 40.228 38.762 37.920 37.060 32.740 32.155 32.520 31.865 31.990 31.963 31.765 32.357 33.025 32.302 32.175 36.007 37.362 34.107 32.632 32.085 32.215 34.083 34.662 33.993 31.920 32.345 32.542 32.130 31.755 33.875 35.952 34.612 33.620 38.020 38.188 37.118 35.638 34.783 34.545 34.528 34.003 31.698 31.688 31.600 31.533 31.528 31.757 31.903 31.670 31.675 31.638 32.240 34.127 33.342 31.710 31.765 32.165 33.395 33.818 34.592 36.120 34.625 34.880 33.252 31.555 31.462 31.427 31.385 31.392 31.378 31.385 32.162 31.545 32.235 31.885 31.610 31.540 31.520 31.542 31.583 31.555 32.338 33.140 32.055 32.370 32.042 31.660 32.040 31.603 31.350 31.403 31.503 31.480 31.943 32.350 32.420 32.502 31.690 32.358 31.927 31.480 31.263 31.285 31.132 31.093 31.110 31.513 31.237 32.045 33.397 33.180 32.270 31.417 31.298 31.420 31.115 31.080 31.055 31.272 37.565 39.597 40.385 40.357 40.015 39.603 31.142 31.067 31.030 30.997 30.990 31.000 31.007 33.075 33.122 31.280 31.228 31.505 31.735 33.887 33.665 33.393 32.993 31.138 31.132 30.987 30.840 30.833 30.830 30.805 30.815 30.827 30.868 30.837 30.843 30.830 30.815 30.980 31.438 31.135 31.180 32.035 31.220 31.035 32.507 31.595 32.300 32.057 32.580 32.772 34.318 33.485 33.500 33.585 33.470 33.650 33.768 32.778 30.870 30.458 54.408 63.798 63.805 66.040 66.155 66.155 64.770 63.803 52.225 30.305 32.458 33.092 33.080 33.055 33.050 33.007 33.017 32.990 33.065 30.510 31.135 30.470 30.865 30.862 32.373 32.958 32.928 30.538 30.025 30.007 29.977 29.980 29.972 29.960 29.927 30.363 31.528 30.283 29.960 29.990 29.985 29.950 29.932 29.977 30.007 30.175 30.270 30.330 30.415 30.420 30.308 30.323 30.295 30.385 30.290 30.625 31.050 31.272 32.717 35.062 34.177 34.612 36.295 36.540 35.292 32.850 34.045 33.695 34.083 34.963 33.045 31.757 31.562 31.593 31.640 31.737 31.993 31.660 31.595 31.590 31.542 31.632 31.895 31.330 30.397 30.058 29.700 28.925 27.983 28.353 28.295 28.257 28.240 28.290 28.765 27.000 25.688 26.105 26.790 27.638 27.843 27.878 29.423
33.800 36.030 39.068 39.845 38.890 35.373 32.702 32.698 33.302 32.830 32.585 32.545 32.583 33.880 32.818 33.735 33.340 32.522 32.490 32.490 35.010 39.765 40.688 39.195 36.345 33.825 34.085 33.702 33.165 32.725 32.795 32.825 33.710 35.842 36.325 36.862 33.562 32.585 32.690 32.780 32.610 32.525 32.548 32.550 32.603 32.500 33.263 34.965 32.702 32.965 32.888 32.493 32.472 32.450 32.950 32.745 32.755 32.785 32.745 32.770 32.803 32.780 33.020 34.928 33.292 32.732 32.730 37.110 39.890 41.275 41.500 40.185 38.202 36.048 36.040 35.955 35.710 34.077 33.222 32.653 32.810 32.415 32.923 34.060 32.305 32.302 32.400 32.400 32.338 32.443 32.493 32.448 32.268 32.390 32.287 33.020 32.665 32.482 32.230 33.472 33.592 32.215 32.177 32.420 34.057 34.180 33.755 35.427 36.122 36.010 35.120 33.760 32.533 32.202 32.083 31.993 31.987 32.103 32.180 32.230 32.200 32.197 32.232 32.263 32.333 32.368 33.208 36.628 37.048 35.485 34.155 33.610 31.970 31.862 31.983 32.575 31.835 32.045 31.858 32.603 34.710 35.025 35.603 37.450 38.285 39.060 38.722 35.667 33.873 37.097 34.870 33.177 32.080 31.772 31.775 31.747 32.305 32.568 32.197 32.322 36.800 32.145 32.150 32.138 32.120 33.920 33.842 37.930 32.158 32.480 32.697 31.733 31.658 31.943 32.760 32.298 34.222 37.817 38.638 38.802 38.702 37.300 36.033 34.995 33.757 31.683 31.725 31.542 31.535 31.548 32.415 31.685 31.593 31.587 31.800 33.048 31.750 31.830 31.630 32.022 33.430 32.257 32.385 32.985 33.947 34.020 34.395 33.760 32.443 31.665 31.502 31.407 31.365 31.335 31.257 31.318 31.577 32.985 34.225 31.618 31.487 31.587 31.698 32.037 31.695 32.220 32.248 31.665 32.472 31.865 31.840 32.315 32.362 31.425 31.458 31.483 31.798 32.910 32.670 34.537 33.487 32.780 31.875 32.615 31.342 31.270 31.780 31.878 31.163 31.085 31.075 31.135 31.490 32.007 32.292 31.802 31.017 30.990 31.100 31.130 31.112 31.055 33.330 38.663 39.893 40.537 40.060 39.397 33.745 31.105 31.632 31.015 31.007 31.000 30.975 31.068 31.763 31.932 31.245 31.217 31.713 34.403 34.818 34.768 32.823 31.415 31.110 31.070 31.032 30.833 30.833 30.807 30.800 30.775 30.780 30.802 30.825 30.818 30.817 30.812 30.835 30.807 30.895 31.317 31.245 30.780 30.772 30.778 30.862 30.925 31.220 33.295 33.255 33.403 33.075 32.792 33.215 31.575 30.872 30.763 30.438 30.438 30.460 48.592 63.780 63.935 65.320 64.967 64.552 64.095 63.795 57.100 30.895 32.057 33.092 33.088 33.083 33.028 33.007 33.007 32.997 32.987 32.958 32.943 33.655 33.048 33.073 33.100 33.105 33.115 31.210 29.962 29.945 29.920 29.905 29.903 29.907 29.880 30.177 31.593 30.257 29.983 29.960 29.958 29.948 29.932 30.000 30.070 30.217 30.250 30.305 30.382 30.448 30.305 30.305 30.300 30.427 30.275 30.522 30.935 31.250 32.917 34.325 33.140 32.600 32.893 35.808 33.917 33.202 32.800 32.893 34.815 35.285 32.568 31.542 31.557 31.575 31.625 31.788 31.850 31.675 31.630 31.585 31.523 31.675 31.975 32.993 32.138 30.590 30.052 28.740 27.900 27.985 28.195 28.160 28.350 28.337 28.405 28.475 28.288 27.135 28.095 28.432 28.822 28.362 28.705
32.912 37.845 40.190 39.452 37.410 33.278 33.478 32.785 32.865 32.700 32.518 32.548 33.118 32.735 32.607 32.688 33.330 34.022 34.222 33.440 38.415 40.618 40.048 38.515 33.430 32.908 32.870 33.472 34.287 34.167 34.020 33.315 35.033 37.548 37.360 34.752 32.590 32.537 32.460 32.525 32.743 32.522 32.548 32.558 32.580 32.513 35.518 38.840 38.065 35.030 32.908 33.200 32.580 32.592 33.040 32.740 32.740 32.762 32.775 32.715 32.740 32.693 32.873 33.247 32.697 32.730 34.775 39.300 40.577 41.675 40.720 39.335 37.107 35.963 35.940 35.967 34.475 33.217 34.482 33.323 32.420 32.415 34.160 34.400 34.190 33.080 32.400 32.470 32.372 32.590 32.530 32.577 32.247 32.237 32.320 32.237 33.567 34.083 32.590 33.033 32.835 32.170 32.128 32.655 33.997 32.403 32.622 35.190 38.693 38.938 35.565 35.355 34.778 34.312 32.958 32.927 32.255 32.342 32.400 32.390 32.257 32.198 32.155 32.123 32.062 32.055 32.060 32.143 32.945 34.007 33.763 32.665 32.268 32.127 32.497 33.202 32.010 32.003 32.197 32.185 32.445 34.202 34.753 35.075 35.985 37.122 37.647 32.833 36.417 38.780 38.488 37.645 35.333 31.990 31.770 31.785 32.935 32.787 32.872 32.548 33.198 32.380 32.180 32.130 32.092 33.188 32.097 32.380 32.045 32.065 33.062 33.423 32.365 32.540 32.750 32.287 32.007 33.750 36.412 37.842 38.982 38.685 38.198 37.377 33.465 31.868 34.380 33.360 31.745 31.722 32.263 31.733 31.548 31.612 32.862 32.090 31.648 31.638 31.920 32.605 32.982 32.190 31.695 31.743 31.882 33.615 33.528 33.855 35.542 32.495 31.548 31.487 31.430 31.350 31.250 31.265 31.282 31.712 32.915 32.197 31.500 32.020 33.632 32.295 31.590 32.972 31.897 31.660 31.612 31.840 32.237 32.558 32.335 31.567 31.493 31.562 31.667 32.275 32.485 32.253 35.307 33.778 32.638 32.857 32.362 31.537 31.368 31.298 31.100 31.093 31.038 31.015 31.033 31.102 31.140 31.040 30.960 31.208 31.460 31.015 31.090 31.092 32.728 39.375 40.200 40.472 39.757 36.112 31.305 31.183 31.698 30.987 30.978 30.995 30.980 31.605 31.795 31.615 31.503 32.280 33.073 36.730 37.535 37.435 33.645 32.217 31.705 31.138 30.972 30.780 30.795 30.802 30.767 30.837 30.958 30.970 30.958 30.888 30.833 30.785 30.753 30.770 30.785 30.800 30.805 30.790 30.763 30.712 31.663 31.060 30.730 31.823 31.033 31.088 33.485 34.022 34.225 32.430 31.210 30.853 30.465 30.455 30.460 45.743 63.783 63.787 63.787 63.790 63.798 63.778 63.800 56.900 30.263 31.097 33.287 33.080 33.068 33.040 33.015 33.018 33.013 32.978 32.990 32.963 33.037 33.025 33.052 33.060 33.077 33.112 31.495 29.915 29.985 30.370 29.870 30.095 30.000 30.632 30.775 30.830 30.167 29.932 29.965 29.962 29.940 29.967 30.057 30.092 30.177 30.225 30.290 30.372 30.353 30.288 30.307 30.280 30.320 30.278 30.510 30.865 31.118 33.802 34.688 35.917 34.655 33.838 34.550 33.792 34.435 35.583 35.162 36.408 34.015 31.772 31.513 31.535 31.562 31.628 31.802 31.800 31.653 31.585 31.542 31.525 31.800 31.802 33.400 32.980 33.265 32.630 29.037 27.925 28.083 27.622 27.382 28.252 28.485 28.462 28.452 28.515 28.715 28.997 28.740 28.698 28.698 29.077
36.890 39.100 39.915 38.778 35.130 33.638 33.690 32.925 33.135 32.590 32.495 32.630 33.472 32.630 32.873 33.410 33.213 33.400 37.725 38.333 39.908 40.512 38.180 34.748 32.795 33.263 32.577 32.575 32.673 33.345 33.345 35.037 37.103 37.560 36.800 33.920 32.897 32.550 32.505 32.410 32.423 32.420 32.482 32.903 32.542 32.955 38.105 39.765 38.940 35.560 32.470 32.530 32.925 32.675 32.682 32.647 32.660 32.755 32.798 32.737 32.735 32.810 32.850 32.725 32.690 33.380 38.280 40.005 41.355 41.217 39.908 38.095 36.198 35.938 35.910 35.448 32.695 32.427 33.188 32.472 32.417 35.862 35.318 34.318 33.942 34.110 33.670 32.662 32.375 32.432 32.360 32.397 32.338 32.300 32.588 31.962 34.985 38.287 36.625 32.935 32.095 32.083 32.092 32.542 33.055 32.155 32.560 36.115 39.515 39.912 35.618 32.533 35.350 36.020 35.562 35.350 33.193 32.500 32.515 32.403 32.260 32.245 32.165 32.112 32.025 32.007 31.987 32.038 32.238 32.225 32.263 32.365 32.748 32.912 33.435 34.162 34.305 33.420 33.518 32.688 31.955 31.987 32.995 33.720 34.825 35.095 33.857 32.993 37.800 38.830 39.505 40.005 38.530 37.260 34.697 32.412 33.428 32.658 32.812 32.950 32.917 32.767 32.490 33.372 36.170 34.480 34.610 32.140 32.090 32.037 32.028 32.085 32.335 32.333 32.220 32.083 31.895 31.705 31.737 33.385 35.760 37.805 38.430 37.272 32.505 36.487 35.958 34.770 34.295 32.967 31.820 32.460 31.523 31.552 32.610 31.805 31.685 31.665 31.900 33.155 31.648 31.677 31.663 31.675 31.685 32.570 32.020 32.010 34.555 34.103 32.815 31.925 32.025 31.415 31.278 31.243 31.245 31.278 31.285 31.388 31.525 33.145 33.597 32.338 31.467 33.095 32.287 33.850 34.880 32.452 32.070 32.485 32.033 31.548 31.507 31.545 31.525 33.695 32.357 32.505 34.923 36.692 37.033 36.768 35.213 33.085 32.710 31.635 31.217 31.095 31.038 31.263 31.110 31.015 30.967 30.955 31.020 31.935 31.110 30.925 31.035 31.528 33.020 37.893 40.428 40.247 39.643 33.185 31.097 31.915 31.020 31.010 30.987 30.978 30.985 32.472 32.530 31.327 31.112 32.197 32.780 36.965 37.710 37.295 36.115 31.517 31.145 31.020 30.903 30.737 30.800 30.760 30.845 31.035 31.090 31.093 31.083 31.022 30.972 30.917 30.870 30.802 30.800 30.778 30.788 30.798 30.792 30.760 30.865 31.105 30.690 31.653 31.150 30.800 32.812 34.430 31.935 31.310 31.310 31.283 30.677 30.475 30.472 41.347 63.858 63.808 63.810 63.807 63.815 63.825 63.815 51.643 30.325 30.312 33.325 33.068 33.070 33.055 33.025 33.007 33.005 32.967 32.958 32.975 33.017 33.007 33.042 33.045 33.088 33.090 31.605 29.940 30.675 30.375 29.900 30.330 30.608 30.685 30.997 30.142 30.230 29.885 29.950 29.950 29.945 29.990 30.097 30.145 30.163 30.210 30.285 30.350 30.358 30.273 30.275 30.237 30.355 30.275 30.505 30.835 31.020 31.905 35.037 34.825 35.740 33.507 32.673 33.905 33.757 34.018 33.618 34.140 32.737 31.638 31.480 31.520 31.570 31.667 31.880 31.755 31.628 31.558 31.507 31.577 32.410 31.792 31.923 31.663 32.647 30.417 28.540 28.000 27.715 27.450 26.870 26.085 27.103 28.880 28.542 28.538 28.583 28.675 28.753 28.725 29.350 29.688
38.385 39.800 39.403 37.740 32.725 32.920 33.850 33.175 32.600 32.530 32.545 32.533 32.685 33.162 33.403 33.130 33.025 33.198 40.257 40.438 40.865 39.660 36.440 33.048 33.345 32.882 32.888 32.868 32.752 32.695 32.658 32.890 36.410 36.802 34.650 33.105 32.655 32.485 32.757 32.425 32.460 32.470 32.450 33.228 33.355 35.235 39.025 39.780 38.007 32.880 32.430 32.440 32.600 32.655 32.607 33.275 32.802 32.763 32.795 32.780 32.750 32.965 32.743 32.685 32.695 35.175 39.542 40.818 41.670 40.780 39.215 36.520 35.965 35.925 35.895 35.080 32.868 32.597 32.502 32.450 35.525 37.283 35.932 33.798 32.393 32.302 32.915 33.570 33.553 33.153 32.493 32.603 32.450 32.545 32.237 33.730 37.567 39.702 39.213 38.240 36.113 33.143 32.112 33.925 32.478 32.338 32.083 33.515 35.807 35.865 33.355 33.095 33.925 36.035 36.272 36.237 35.625 35.443 33.465 32.542 32.145 32.330 32.327 32.228 32.048 31.995 31.987 32.020 32.120 32.075 32.085 32.275 32.323 32.378 33.255 33.847 34.257 34.107 34.068 33.860 31.985 31.987 32.900 31.923 33.075 34.253 32.055 31.862 33.290 35.818 38.050 39.642 39.408 38.935 37.075 32.748 36.923 35.658 33.193 32.350 32.495 33.065 32.405 33.628 32.537 33.448 32.463 32.100 32.103 32.083 32.053 32.033 32.040 32.053 32.115 32.200 32.130 31.770 31.975 32.497 31.900 32.980 34.580 33.865 32.917 38.175 38.285 37.425 35.482 32.713 32.092 32.338 31.792 32.263 32.330 31.720 31.715 31.932 32.600 32.515 31.660 31.660 31.677 31.673 32.183 32.478 31.622 31.695 32.838 33.518 34.215 33.372 31.665 31.477 31.395 31.298 31.245 31.253 31.298 31.517 31.528 35.033 37.568 37.083 36.480 37.263 37.048 37.610 37.255 33.018 31.772 31.810 32.120 31.585 31.545 31.540 31.600 33.225 33.597 34.560 35.745 38.068 37.915 37.615 37.362 37.033 36.510 31.938 31.325 31.215 31.147 31.895 32.535 31.013 31.005 30.965 30.945 30.913 30.932 30.983 31.035 31.090 31.365 31.818 34.105 37.920 35.750 31.983 31.112 31.987 30.983 30.997 30.980 30.965 30.967 31.932 32.167 31.370 31.060 31.052 33.175 36.643 37.470 36.993 35.980 31.788 31.073 31.060 30.845 30.790 30.815 30.800 30.930 31.100 31.132 31.138 31.135 31.125 31.090 31.052 31.030 30.990 30.910 30.842 30.798 30.755 30.753 30.740 30.705 30.725 30.722 30.778 30.900 31.215 32.205 31.650 31.573 30.765 30.800 30.682 30.608 30.550 30.535 36.702 64.132 62.533 63.083 59.875 59.705 56.792 38.007 32.930 32.335 30.377 33.160 33.068 33.062 33.057 33.020 33.020 33.007 32.970 32.960 32.982 33.013 33.033 33.037 33.073 33.085 33.080 31.880 29.865 30.330 30.243 29.792 30.000 31.267 30.278 30.737 33.660 33.015 30.147 29.945 29.980 29.975 30.028 30.090 30.115 30.135 30.188 30.278 30.340 30.353 30.230 30.305 30.273 30.370 30.253 30.500 30.837 31.007 31.237 33.728 34.458 31.858 32.420 33.860 33.018 32.232 32.575 32.710 33.030 33.035 31.542 31.498 31.538 31.618 31.667 31.950 31.653 31.600 31.548 31.510 31.680 31.977 32.655 33.180 32.370 32.083 30.802 29.743 27.905 27.562 27.380 27.017 25.925 25.055 26.342 28.528 28.685 28.663 28.653 28.730 28.895 29.013 29.388
38.792 39.438 38.702 34.840 32.722 32.715 32.690 33.603 32.630 32.520 32.568 32.472 32.612 33.170 32.857 32.920 33.213 36.037 39.368 40.408 40.630 38.440 35.638 35.068 35.565 34.928 34.210 33.935 33.092 33.037 33.338 34.107 36.805 35.275 32.888 32.878 32.460 32.525 32.740 32.432 32.443 32.483 32.493 32.525 32.945 38.015 40.570 39.345 36.605 32.490 32.475 32.442 33.188 32.697 32.877 33.478 32.732 32.747 32.748 32.760 32.792 32.787 32.702 32.653 33.873 38.185 40.265 41.562 41.442 39.893 37.720 35.818 36.217 35.932 35.463 33.052 32.868 32.900 32.373 33.695 36.655 37.048 32.927 32.750 32.200 32.647 34.315 34.870 34.228 33.550 33.640 33.050 32.335 32.757 31.890 34.405 38.890 40.323 41.200 40.200 39.320 38.158 34.295 33.528 32.130 32.228 32.378 33.655 32.420 32.120 32.090 33.165 32.127 32.415 33.975 35.700 36.167 36.342 36.118 35.580 33.590 32.230 32.395 32.340 32.055 32.040 32.035 32.048 32.050 31.987 32.103 32.235 32.315 32.208 32.122 32.240 32.857 33.268 33.967 32.320 32.028 32.410 32.377 31.945 31.935 31.995 31.950 31.875 31.860 31.898 32.517 34.740 38.013 38.285 34.342 34.010 38.310 38.768 37.970 36.557 34.312 32.522 32.360 32.975 32.487 32.173 32.470 32.143 32.155 32.115 32.073 32.068 32.092 32.088 32.033 32.062 32.162 32.232 32.360 32.802 33.903 32.022 31.788 31.997 34.630 37.807 38.610 38.885 38.875 37.128 34.980 32.868 32.118 32.778 31.772 31.705 31.805 32.143 32.875 31.638 31.677 31.685 31.667 31.677 32.640 31.575 31.575 31.728 31.830 32.312 33.565 33.198 31.828 31.485 31.445 31.405 31.320 31.273 31.410 31.503 32.408 37.630 38.630 38.180 38.515 38.292 38.645 38.778 36.153 31.592 31.743 31.720 31.657 31.588 31.555 31.535 31.642 32.917 35.302 34.930 33.842 37.872 38.085 37.820 37.942 37.838 35.885 32.127 31.415 31.255 31.200 31.288 32.743 31.013 31.020 30.983 30.952 30.938 30.940 31.022 31.090 31.142 31.128 31.127 31.135 31.368 31.358 31.093 31.112 31.250 30.995 30.970 30.970 30.980 31.712 31.137 31.415 31.120 31.038 31.055 35.075 36.950 37.355 36.698 32.900 31.087 31.085 31.052 30.855 30.835 31.205 31.225 31.097 31.150 31.150 31.153 31.165 31.138 31.140 31.167 31.120 31.083 31.322 30.983 30.903 30.900 30.820 30.778 30.718 30.693 30.682 30.700 30.698 30.647 30.743 30.810 31.340 30.987 30.568 30.605 30.600 30.567 30.570 31.125 38.285 36.975 36.870 33.750 34.443 31.343 31.310 32.270 31.385 32.675 32.868 33.075 33.073 33.057 33.030 33.025 32.987 32.993 32.948 32.982 32.993 32.993 33.033 33.037 33.062 33.092 32.342 29.840 30.035 36.448 40.770 49.420 52.287 50.948 61.198 62.460 63.778 31.785 29.923 29.970 29.993 30.040 30.120 30.100 30.122 30.188 30.257 30.327 30.423 30.280 30.295 30.243 30.305 30.233 30.493 30.837 31.005 33.502 33.138 34.805 32.592 31.780 33.560 34.873 32.915 32.327 32.502 32.620 32.818 31.460 31.490 31.565 31.562 31.725 31.895 31.597 31.555 31.545 31.497 31.718 31.978 33.972 33.677 32.770 32.083 31.243 30.503 28.202 27.792 27.505 26.920 25.333 25.090 25.108 25.798 29.260 28.805 28.722 28.740 28.750 28.900 29.065
35.360 38.155 36.757 32.815 32.730 32.705 33.135 33.110 32.515 32.542 32.530 32.533 32.990 33.118 32.698 33.245 33.590 35.910 37.167 38.083 39.080 36.785 35.780 35.823 35.030 33.132 33.842 34.510 35.200 35.263 34.170 35.895 36.675 34.795 33.225 32.562 32.438 32.465 32.557 32.432 32.425 32.467 32.480 32.475 34.963 38.900 40.115 38.552 33.728 32.505 32.455 32.778 32.868 32.728 32.798 32.730 32.702 32.745 32.728 32.713 32.833 32.747 32.660 32.932 38.088 39.680 40.978 41.628 40.600 38.860 35.893 35.335 35.592 36.085 33.475 32.390 32.752 32.460 32.370 36.070 36.987 34.342 32.342 32.188 32.173 32.710 34.925 35.545 37.780 37.930 35.688 34.060 33.245 32.388 32.075 35.960 37.928 39.013 40.410 40.432 39.442 37.395 32.577 33.162 32.097 32.150 32.640 33.238 32.130 32.105 32.323 32.985 32.495 32.035 32.085 33.362 34.535 34.493 35.253 36.450 35.255 33.827 33.195 32.385 32.173 32.020 32.038 32.103 32.128 32.482 32.060 32.085 32.125 32.070 32.077 32.353 33.198 33.132 33.222 33.147 32.345 33.378 34.107 33.035 32.115 32.007 31.847 31.875 31.878 32.202 31.978 31.868 33.197 34.737 33.382 33.362 36.978 38.210 39.305 39.480 38.140 35.933 33.263 32.487 31.977 32.350 32.627 32.028 32.363 32.625 32.180 32.107 32.125 32.420 32.107 32.060 32.028 32.095 32.240 32.365 32.175 31.843 31.823 31.708 32.097 34.165 36.697 37.792 38.717 38.783 38.285 37.355 34.792 33.493 33.585 31.757 31.767 32.722 32.415 31.727 31.663 31.690 31.682 32.565 32.380 31.708 31.597 31.663 31.677 32.385 32.673 32.232 32.230 31.570 32.195 31.440 31.427 31.380 31.775 31.735 33.880 37.963 38.592 38.790 38.820 39.055 39.708 39.702 35.620 31.663 31.745 31.700 31.612 31.635 31.557 33.555 34.057 33.510 34.708 34.088 33.340 37.097 36.755 36.717 37.325 37.615 33.785 32.150 31.267 31.247 31.900 32.305 31.895 31.087 30.938 30.952 30.993 30.925 30.940 31.065 31.150 31.717 35.533 33.365 31.255 31.130 31.125 31.080 31.048 31.017 31.003 30.972 30.950 30.985 31.097 30.983 30.975 30.940 30.990 31.985 36.400 37.225 37.175 35.115 31.775 31.050 31.050 30.935 30.825 30.860 31.733 30.952 31.147 31.132 31.120 31.105 31.120 31.140 31.112 31.115 31.095 31.315 33.785 32.685 30.962 30.950 30.910 30.897 30.845 30.760 30.700 30.650 30.645 30.622 30.638 30.620 30.618 30.577 30.565 31.483 31.060 30.648 30.555 30.520 30.677 30.888 32.993 32.485 33.415 31.195 31.300 32.655 33.805 31.475 32.338 33.085 33.070 33.060 33.037 33.010 32.997 32.985 32.967 32.965 32.985 33.000 33.005 33.040 33.085 33.068 33.225 29.945 29.895 56.673 63.365 63.378 63.318 63.298 63.287 63.315 63.443 33.818 29.890 29.923 29.995 30.075 30.095 30.070 30.142 30.195 30.265 30.375 30.377 30.253 30.257 30.235 30.273 30.215 30.458 30.830 31.153 33.568 35.307 34.697 33.713 34.155 34.990 34.858 33.325 32.747 32.605 32.175 32.155 31.433 31.480 31.513 31.555 31.805 31.740 31.570 31.548 31.493 31.497 31.772 32.158 33.993 33.195 31.860 30.935 29.497 29.510 27.865 27.757 27.317 26.712 25.183 25.778 28.170 28.295 26.905 28.545 28.752 28.837 28.772 28.833 28.970
33.360 33.243 33.997 33.303 32.765 32.732 33.585 32.628 32.493 32.550 32.510 32.560 32.610 32.542 32.542 32.590 34.822 36.202 35.893 35.717 36.287 35.573 34.397 35.150 34.263 32.693 33.075 33.205 33.053 33.455 33.430 35.743 36.522 35.362 34.320 32.445 32.435 32.430 32.427 32.420 32.730 33.250 33.162 32.493 37.388 39.632 39.248 36.408 32.513 32.853 32.768 32.945 32.710 33.215 33.118 32.675 32.728 32.757 32.708 32.798 32.785 32.675 32.640 33.608 39.048 40.502 41.925 41.083 39.670 36.537 35.835 35.770 35.537 35.510 34.487 32.550 32.647 32.395 34.423 36.955 36.033 34.382 32.493 32.165 32.175 34.295 34.940 36.193 38.780 39.650 38.940 37.917 34.572 32.232 31.945 31.983 32.317 35.475 37.513 38.815 38.630 34.298 32.230 32.360 32.522 32.130 33.542 32.583 32.062 32.505 32.895 32.795 32.060 32.118 32.295 33.010 33.465 33.170 33.180 34.612 34.748 34.802 34.588 33.573 32.287 32.085 32.198 32.175 32.208 32.338 32.165 32.085 32.325 32.202 32.228 33.070 35.165 32.485 32.958 34.362 35.070 32.873 34.790 34.655 34.345 32.198 31.865 31.862 31.868 32.107 31.818 31.812 31.775 35.072 33.360 31.845 31.785 33.463 36.335 38.173 38.810 38.747 37.792 33.550 33.372 32.400 31.833 31.917 32.493 32.220 32.697 32.423 32.232 32.845 32.685 32.525 32.125 32.050 32.345 34.447 36.618 32.370 31.972 31.790 31.927 31.772 31.807 33.385 35.425 37.795 38.460 37.510 32.627 37.805 38.132 36.478 32.943 34.050 33.847 32.915 32.100 31.910 31.887 32.753 31.625 31.618 31.635 31.642 31.740 32.440 31.905 31.815 31.637 31.997 32.388 31.513 31.462 31.955 31.635 31.752 34.565 36.167 37.513 37.737 37.735 38.255 38.720 37.085 31.572 31.780 31.673 31.653 31.673 31.627 32.213 34.175 33.997 33.005 33.645 32.080 31.608 33.037 33.240 32.643 35.150 36.655 34.515 32.272 31.250 31.225 31.535 33.250 32.415 31.180 31.335 30.985 31.005 30.997 30.950 31.095 31.185 34.208 36.765 37.533 36.015 33.272 31.665 31.065 31.060 31.010 31.007 30.980 30.965 30.987 31.017 31.000 30.985 30.967 30.967 31.325 34.853 36.860 36.882 34.443 31.398 31.122 31.045 30.860 30.807 31.147 31.368 31.087 31.100 31.725 38.000 38.003 33.768 31.355 31.085 31.065 31.052 31.065 33.260 32.272 31.000 31.283 31.105 30.927 30.917 30.900 30.843 30.715 30.812 31.198 30.845 30.577 30.585 30.560 30.557 30.555 30.550 30.963 31.562 30.775 30.462 30.597 32.455 33.903 31.650 30.995 31.693 34.188 32.667 31.932 32.188 33.083 33.075 33.072 33.055 33.028 33.007 32.965 32.960 32.965 32.985 32.993 33.015 33.035 33.068 33.065 33.360 29.885 29.820 55.030 63.305 63.285 63.260 63.265 63.270 63.298 63.292 40.083 29.820 29.895 29.965 30.067 30.060 30.083 30.122 30.205 30.285 30.340 30.298 30.212 30.243 30.255 30.325 30.233 30.433 30.855 31.080 31.650 33.647 34.208 34.552 33.385 34.362 34.735 33.540 33.537 32.502 32.438 31.792 31.433 31.487 31.528 31.612 31.975 31.673 31.520 31.483 31.467 31.502 32.747 32.155 32.028 31.542 32.650 32.150 31.562 28.233 27.868 27.630 27.302 26.185 25.330 25.565 29.013 27.877 28.770 28.980 28.905 28.880 28.903 28.878 28.885
34.083 33.253 33.710 33.455 32.743 32.990 32.923 32.463 32.530 32.550 32.518 32.732 33.085 32.580 32.588 32.745 33.917 35.425 36.037 36.158 35.893 34.820 32.730 32.927 32.982 33.200 34.190 34.130 35.550 35.090 34.743 36.290 35.357 33.738 34.925 32.905 32.472 32.658 32.420 32.420 32.595 32.680 32.923 35.235 38.750 39.807 38.410 34.088 32.382 32.385 32.897 32.807 32.713 33.145 32.757 32.685 32.722 32.717 32.700 32.815 32.702 32.645 32.673 35.880 39.860 41.252 41.545 40.085 38.802 36.100 35.875 35.888 35.903 35.853 35.472 35.205 33.138 32.445 35.302 36.810 33.512 32.580 33.478 33.575 33.040 34.920 35.055 37.812 39.452 40.717 39.405 37.345 33.472 32.153 32.123 32.005 32.170 32.765 32.353 34.800 37.270 33.605 32.635 38.240 34.603 32.410 33.465 32.035 32.030 32.388 33.382 32.110 32.830 33.175 33.130 32.713 32.145 32.438 32.280 33.170 33.830 34.513 34.335 34.722 33.955 32.518 32.255 32.073 32.680 34.640 33.963 32.107 32.455 32.340 32.278 32.083 32.123 32.128 33.097 33.715 34.475 32.097 31.915 33.292 34.030 32.982 31.845 31.868 34.100 34.690 32.220 31.843 31.903 33.882 32.075 31.750 31.740 32.155 33.092 34.845 36.000 38.103 37.145 32.103 37.355 37.272 34.995 33.513 32.585 32.250 34.013 32.653 32.728 32.745 32.165 32.833 32.680 32.368 33.522 37.158 35.965 33.503 32.397 32.573 31.862 31.753 31.722 31.855 31.798 32.357 34.430 34.920 33.503 37.737 38.763 38.835 38.230 37.403 35.298 34.315 34.053 32.667 32.967 32.420 31.882 31.645 31.645 32.095 33.433 32.235 31.663 31.612 31.695 31.733 32.170 31.923 32.200 31.850 31.562 31.538 31.540 32.287 33.573 34.498 34.873 37.195 37.695 35.403 31.688 31.722 31.665 31.710 31.767 31.573 31.775 34.103 32.865 33.772 32.952 31.657 31.590 32.057 32.073 32.447 33.287 34.838 35.085 31.535 31.250 33.260 33.747 36.243 33.472 31.423 31.875 31.075 31.695 31.032 30.935 31.175 31.240 31.755 36.490 37.375 36.388 31.908 31.240 31.372 32.013 31.238 31.005 30.985 30.997 31.325 31.035 31.250 30.980 30.975 30.987 31.575 33.603 34.613 34.195 31.940 31.095 31.105 31.020 30.853 30.853 32.708 31.337 31.080 31.095 36.280 40.005 39.690 39.403 38.435 34.900 31.073 31.025 32.905 33.080 31.265 31.068 32.320 33.358 31.450 34.140 32.142 31.495 30.870 30.842 30.993 31.100 30.565 30.667 30.535 30.540 30.520 30.535 30.525 30.603 30.597 30.480 31.350 30.663 30.520 30.565 30.548 31.182 31.465 31.230 30.967 31.392 33.120 33.073 33.052 33.065 33.085 34.382 33.022 33.147 32.965 32.960 32.993 33.013 33.037 33.065 33.080 33.155 30.188 29.923 52.430 63.292 63.300 63.475 63.513 63.450 63.283 63.327 43.105 29.830 29.858 29.913 29.993 30.025 30.040 30.097 30.155 30.237 30.298 30.295 30.225 30.240 30.208 30.270 30.195 30.395 30.843 31.055 31.978 33.888 31.700 32.710 32.868 35.690 35.903 34.565 34.322 32.792 32.158 31.478 31.438 31.480 31.517 31.635 31.897 31.590 31.515 31.490 31.447 31.557 31.968 32.105 31.612 30.820 31.487 31.778 30.675 28.103 27.862 27.528 27.275 26.002 25.068 26.253 30.800 29.735 28.975 28.903 28.138 28.515 29.255 28.962 28.927
33.250 32.737 33.542 34.345 32.825 32.625 32.545 32.522 32.570 32.560 32.552 32.802 34.045 33.857 32.638 32.952 32.855 34.680 34.978 35.173 35.870 34.160 33.875 34.130 34.007 34.042 35.268 35.140 36.763 36.362 34.985 34.555 33.180 32.545 33.050 34.688 33.565 32.500 32.467 32.372 32.498 32.530 33.177 36.917 39.792 39.475 35.938 32.390 32.393 32.448 33.165 32.722 33.653 32.875 32.705 32.715 32.713 32.702 32.787 32.743 32.645 32.667 34.972 39.208 40.643 41.665 40.710 39.470 37.083 36.435 36.185 35.933 35.938 35.908 35.908 34.798 32.458 32.490 36.033 35.377 32.965 32.180 32.327 33.260 33.815 34.180 36.735 38.655 40.430 40.145 38.545 35.732 33.007 32.910 32.320 32.070 32.372 32.915 32.860 32.125 32.745 33.225 38.000 39.947 39.923 37.268 34.783 32.073 32.285 32.215 33.592 32.162 33.713 34.435 33.112 32.103 32.145 32.085 32.445 32.055 32.070 32.677 33.542 32.612 33.780 34.572 33.603 33.463 34.215 36.342 36.042 32.408 32.310 32.295 32.180 32.068 32.140 32.557 35.192 34.862 32.612 32.007 32.028 32.020 32.085 32.695 32.010 33.122 34.643 35.263 31.943 32.185 32.182 32.380 31.855 31.743 31.750 32.215 32.040 33.458 34.028 33.322 33.057 35.305 38.475 39.195 38.360 37.597 36.350 34.083 35.150 32.498 31.780 32.062 32.515 32.948 32.315 32.500 33.123 32.423 32.040 31.993 31.975 32.010 32.052 32.115 32.417 32.188 31.755 32.070 32.905 32.862 32.353 33.153 36.840 38.077 39.400 38.870 38.185 37.042 34.818 32.042 32.193 31.755 31.645 31.632 31.663 31.730 32.388 31.695 31.710 31.647 31.650 31.927 32.333 31.680 31.882 32.025 32.060 32.228 31.737 32.213 32.327 32.198 32.060 34.040 35.033 31.673 31.788 31.702 31.685 31.785 32.685 31.878 31.755 31.740 32.220 34.015 33.755 31.735 31.770 32.070 31.970 31.945 32.650 33.725 33.662 31.295 31.825 34.748 36.595 37.250 36.040 31.288 31.175 31.147 31.373 31.317 30.955 31.032 31.260 32.748 36.545 37.510 36.452 35.290 31.908 31.870 31.903 31.882 31.300 31.210 30.990 31.605 32.020 33.945 34.150 30.985 31.005 31.760 31.065 31.925 32.092 31.052 31.040 31.013 30.905 30.870 31.475 32.732 31.040 31.185 31.118 40.205 40.440 40.415 40.200 39.917 39.590 39.395 38.505 38.188 39.350 38.650 34.660 31.552 32.403 32.290 31.300 31.430 33.458 31.212 31.340 30.815 30.728 30.642 31.112 31.302 30.530 30.517 30.503 30.513 30.495 30.472 30.483 30.498 30.632 31.263 31.695 30.507 31.023 30.497 30.688 30.448 30.997 32.150 32.493 32.458 31.885 32.110 30.655 30.555 31.695 33.015 32.938 32.985 32.987 33.000 33.045 33.062 33.095 31.735 29.942 52.310 63.303 63.275 64.010 64.285 64.495 64.155 63.358 52.798 29.778 29.807 29.862 29.945 30.015 30.032 30.067 30.135 30.215 30.305 30.267 30.225 30.217 30.217 30.305 30.202 30.320 30.818 30.997 31.823 33.708 34.100 34.840 33.932 35.338 34.312 34.607 33.478 33.415 32.470 31.425 31.415 31.493 31.522 31.705 31.907 31.567 31.535 31.475 31.392 31.573 32.233 32.015 31.438 30.952 31.165 32.803 32.643 29.470 28.110 27.655 27.355 25.307 25.028 25.245 27.472 28.170 30.112 29.550 27.745 28.230 28.782 29.370 29.253
